-0.6952266693115234	0.48275303840637207	-0.75	0.0	0.0	-1.0
0.7451921701431274	-0.75	0.05615437030792236	0.0	-1.0	0.0
-0.75	0.15288209915161133	0.16435325145721436	-1.0	0.0	0.0
0.46804583072662354	0.11487829685211182	0.75	0.0	0.0	1.0
0.7018172740936279	0.75	-0.12085986137390137	0.0	1.0	0.0
0.75	-0.7452247142791748	-0.07091784477233887	1.0	0.0	0.0
-0.5138445496559143	-0.3383932113647461	-0.75	0.0	0.0	-1.0
0.3130772113800049	-0.75	-0.3043532967567444	0.0	-1.0	0.0
-0.75	0.337424635887146	0.17006802558898926	-1.0	0.0	0.0
0.17025303840637207	-0.4591389298439026	0.75	0.0	0.0	1.0
-0.35922226309776306	0.75	-0.310937762260437	0.0	1.0	0.0
0.75	-0.542332112789154	-0.7049844264984131	1.0	0.0	0.0
0.3163130283355713	0.4398995637893677	-0.75	0.0	0.0	-1.0
-0.1525261402130127	-0.75	-0.26905032992362976	0.0	-1.0	0.0
-0.75	0.03471863269805908	-0.14671093225479126	-1.0	0.0	0.0
-0.38249918818473816	0.5188542604446411	0.75	0.0	0.0	1.0
-0.06286919116973877	0.75	0.05816972255706787	0.0	1.0	0.0
0.75	0.5743958950042725	-0.0765225887298584	1.0	0.0	0.0
-0.5830188989639282	0.47672271728515625	-0.75	0.0	0.0	-1.0
-0.0713127851486206	-0.75	0.31198060512542725	0.0	-1.0	0.0
-0.75	0.34918129444122314	0.4330010414123535	-1.0	0.0	0.0
0.3878357410430908	0.03245103359222412	0.75	0.0	0.0	1.0
-0.6238863468170166	0.75	-0.050287604331970215	0.0	1.0	0.0
0.75	-0.5756992101669312	0.022399485111236572	1.0	0.0	0.0
0.7228323221206665	0.19623827934265137	-0.75	0.0	0.0	-1.0
0.12439781427383423	-0.75	-0.13562560081481934	0.0	-1.0	0.0
-0.75	0.01705867052078247	0.5924162864685059	-1.0	0.0	0.0
0.3352152109146118	-0.5449956655502319	0.75	0.0	0.0	1.0
-0.2968204915523529	0.75	0.6156876087188721	0.0	1.0	0.0
0.75	0.6420913934707642	0.4847240447998047	1.0	0.0	0.0
-0.22226059436798096	-0.15528345108032227	-0.75	0.0	0.0	-1.0
-0.2506318688392639	-0.75	0.012537717819213867	0.0	-1.0	0.0
-0.75	0.4990358352661133	-0.2834617495536804	-1.0	0.0	0.0
0.15622806549072266	-0.04499375820159912	0.75	0.0	0.0	1.0
0.6233614683151245	0.75	0.37471163272857666	0.0	1.0	0.0
0.75	0.6877578496932983	0.44496214389801025	1.0	0.0	0.0
-0.48649951815605164	0.19250059127807617	-0.75	0.0	0.0	-1.0
-0.6395480632781982	-0.75	-0.0024355649948120117	0.0	-1.0	0.0
-0.75	0.11751633882522583	-0.4506779909133911	-1.0	0.0	0.0
-0.22086220979690552	0.2921872138977051	0.75	0.0	0.0	1.0
-0.7084318399429321	0.75	-0.5901802778244019	0.0	1.0	0.0
0.75	-0.14067888259887695	-0.04844462871551514	1.0	0.0	0.0
-0.2242864966392517	-0.6945042610168457	-0.75	0.0	0.0	-1.0
-0.5292699337005615	-0.75	-0.2074946165084839	0.0	-1.0	0.0
-0.75	-0.2904911935329437	0.6089432239532471	-1.0	0.0	0.0
-0.24975955486297607	0.6252598762512207	0.75	0.0	0.0	1.0
-0.4550401568412781	0.75	0.06224852800369263	0.0	1.0	0.0
0.75	-0.4003998935222626	0.103213369846344	1.0	0.0	0.0
0.28096485137939453	-0.6635243892669678	-0.75	0.0	0.0	-1.0
-0.305253803730011	-0.75	0.5780161619186401	0.0	-1.0	0.0
-0.75	0.33896827697753906	-0.2818399965763092	-1.0	0.0	0.0
0.04479050636291504	0.4974651336669922	0.75	0.0	0.0	1.0
-0.7144793272018433	0.75	0.07060015201568604	0.0	1.0	0.0
0.75	0.5478947162628174	0.5075063705444336	1.0	0.0	0.0
0.21830123662948608	0.44252002239227295	-0.75	0.0	0.0	-1.0
0.267197847366333	-0.75	0.5428192615509033	0.0	-1.0	0.0
-0.75	0.7226054668426514	-0.06192910671234131	-1.0	0.0	0.0
-0.052884578704833984	-0.33830639719963074	0.75	0.0	0.0	1.0
0.28894925117492676	0.75	-0.6808943748474121	0.0	1.0	0.0
0.75	0.5228430032730103	-0.5935733914375305	1.0	0.0	0.0
-0.24353277683258057	-0.38975581526756287	-0.75	0.0	0.0	-1.0
-0.7422528862953186	-0.75	0.08483076095581055	0.0	-1.0	0.0
-0.75	0.6774606704711914	-0.42841485142707825	-1.0	0.0	0.0
0.5958189964294434	-0.3186606466770172	0.75	0.0	0.0	1.0
-0.6260767579078674	0.75	0.19951152801513672	0.0	1.0	0.0
0.75	-0.5527234077453613	0.4018516540527344	1.0	0.0	0.0
-0.4004047214984894	-0.1139565110206604	-0.75	0.0	0.0	-1.0
-0.48992425203323364	-0.75	0.6441333293914795	0.0	-1.0	0.0
-0.75	0.4571237564086914	0.35496318340301514	-1.0	0.0	0.0
0.06152540445327759	-0.18023574352264404	0.75	0.0	0.0	1.0
0.6337701082229614	0.75	0.3065052032470703	0.0	1.0	0.0
0.75	-0.006457507610321045	0.5664604902267456	1.0	0.0	0.0
0.16930031776428223	0.4483722448348999	-0.75	0.0	0.0	-1.0
-0.6694508790969849	-0.75	-0.08253997564315796	0.0	-1.0	0.0
-0.75	-0.40348005294799805	0.04367548227310181	-1.0	0.0	0.0
0.49901044368743896	-0.4149725139141083	0.75	0.0	0.0	1.0
0.25072193145751953	0.75	0.6004204750061035	0.0	1.0	0.0
0.75	0.035790860652923584	-0.6778630018234253	1.0	0.0	0.0
-0.19565021991729736	0.7200788259506226	-0.75	0.0	0.0	-1.0
-0.12649846076965332	-0.75	-0.3246475160121918	0.0	-1.0	0.0
-0.75	-0.6957773566246033	0.4008059501647949	-1.0	0.0	0.0
-0.055397748947143555	-0.2948852777481079	0.75	0.0	0.0	1.0
0.1701502799987793	0.75	-0.5891194343566895	0.0	1.0	0.0
0.75	-0.6948978900909424	-0.6977990865707397	1.0	0.0	0.0
-0.11620426177978516	0.08666133880615234	-0.75	0.0	0.0	-1.0
0.18918883800506592	-0.75	-0.18944048881530762	0.0	-1.0	0.0
-0.75	-0.5725927352905273	0.22329479455947876	-1.0	0.0	0.0
-0.639849066734314	0.03792405128479004	0.75	0.0	0.0	1.0
-0.29860934615135193	0.75	-0.36877164244651794	0.0	1.0	0.0
0.75	0.08567643165588379	-0.5250400900840759	1.0	0.0	0.0
0.42133641242980957	-0.12132686376571655	-0.75	0.0	0.0	-1.0
-0.374372273683548	-0.75	-0.1897275447845459	0.0	-1.0	0.0
-0.75	-0.6722670793533325	-0.506643533706665	-1.0	0.0	0.0
0.5066580772399902	0.13483142852783203	0.75	0.0	0.0	1.0
-0.10366326570510864	0.75	0.31057536602020264	0.0	1.0	0.0
0.75	0.670488715171814	0.3304119110107422	1.0	0.0	0.0
0.22572505474090576	-0.10322690010070801	-0.75	0.0	0.0	-1.0
0.3473677635192871	-0.75	0.17429327964782715	0.0	-1.0	0.0
-0.75	0.7459416389465332	-0.07362842559814453	-1.0	0.0	0.0
-0.6262518167495728	0.17264807224273682	0.75	0.0	0.0	1.0
0.047243356704711914	0.75	-0.06527352333068848	0.0	1.0	0.0
0.75	0.030181527137756348	0.08577752113342285	1.0	0.0	0.0
0.26820969581604004	0.5564950704574585	-0.75	0.0	0.0	-1.0
-0.1021718978881836	-0.75	-0.5038341879844666	0.0	-1.0	0.0
-0.75	0.016434192657470703	-0.33742189407348633	-1.0	0.0	0.0
-0.12694311141967773	-0.07588326930999756	0.75	0.0	0.0	1.0
0.1518818736076355	0.75	-0.09293943643569946	0.0	1.0	0.0
0.75	-0.23942255973815918	-0.2520948350429535	1.0	0.0	0.0
-0.3302716612815857	0.1846345067024231	-0.75	0.0	0.0	-1.0
0.29591822624206543	-0.75	-0.5743699073791504	0.0	-1.0	0.0
-0.75	0.5029875040054321	0.6170810461044312	-1.0	0.0	0.0
0.14384126663208008	0.49010229110717773	0.75	0.0	0.0	1.0
0.07247167825698853	0.75	0.35504889488220215	0.0	1.0	0.0
0.75	-0.28446346521377563	-0.38048574328422546	1.0	0.0	0.0
0.2125246524810791	0.2082003951072693	-0.75	0.0	0.0	-1.0
-0.6412200927734375	-0.75	-0.45978471636772156	0.0	-1.0	0.0
-0.75	0.27031540870666504	-0.30656522512435913	-1.0	0.0	0.0
-0.7268635034561157	0.47594475746154785	0.75	0.0	0.0	1.0
-0.7284008264541626	0.75	-0.7029849886894226	0.0	1.0	0.0
0.75	0.5757133960723877	-0.4358280301094055	1.0	0.0	0.0
-0.5994889140129089	0.51993727684021	-0.75	0.0	0.0	-1.0
0.4605729579925537	-0.75	0.32798922061920166	0.0	-1.0	0.0
-0.75	-0.5260080099105835	-0.5184370279312134	-1.0	0.0	0.0
0.12239181995391846	0.4345114231109619	0.75	0.0	0.0	1.0
-0.5672218799591064	0.75	0.5449545383453369	0.0	1.0	0.0
0.75	-0.3661375343799591	-0.6997724771499634	1.0	0.0	0.0
-0.32714053988456726	0.49056124687194824	-0.75	0.0	0.0	-1.0
0.047420501708984375	-0.75	0.06660938262939453	0.0	-1.0	0.0
-0.75	0.3006941080093384	0.35640692710876465	-1.0	0.0	0.0
0.1271907091140747	0.026529788970947266	0.75	0.0	0.0	1.0
0.17723631858825684	0.75	-0.4934195280075073	0.0	1.0	0.0
0.75	0.03331577777862549	-0.3830189108848572	1.0	0.0	0.0
-0.6101545095443726	0.4847891330718994	-0.75	0.0	0.0	-1.0
-0.4229758679866791	-0.75	-0.7307127714157104	0.0	-1.0	0.0
-0.75	-0.7051354646682739	0.3695032596588135	-1.0	0.0	0.0
-0.125146746635437	-0.6051820516586304	0.75	0.0	0.0	1.0
-0.3279772996902466	0.75	-0.253093421459198	0.0	1.0	0.0
0.75	0.43356430530548096	0.6050542593002319	1.0	0.0	0.0
-0.7123689651489258	0.6176161766052246	-0.75	0.0	0.0	-1.0
-0.5857409834861755	-0.75	-0.34071385860443115	0.0	-1.0	0.0
-0.75	-0.7332550287246704	-0.7121381163597107	-1.0	0.0	0.0
0.2344900369644165	0.1973588466644287	0.75	0.0	0.0	1.0
0.4036431312561035	0.75	-0.7204665541648865	0.0	1.0	0.0
0.75	-0.18694829940795898	0.4502514600753784	1.0	0.0	0.0
-0.07199621200561523	-0.6646325588226318	-0.75	0.0	0.0	-1.0
-0.15368878841400146	-0.75	0.5439636707305908	0.0	-1.0	0.0
-0.75	-0.23192310333251953	-0.1843940019607544	-1.0	0.0	0.0
0.40681636333465576	-0.6629710793495178	0.75	0.0	0.0	1.0
0.30065691471099854	0.75	0.14803951978683472	0.0	1.0	0.0
0.75	0.3579772710800171	0.4339805841445923	1.0	0.0	0.0
-0.2981850206851959	-0.475045770406723	-0.75	0.0	0.0	-1.0
-0.4166024923324585	-0.75	-0.5698866844177246	0.0	-1.0	0.0
-0.75	0.6448464393615723	-0.38095012307167053	-1.0	0.0	0.0
0.7290329933166504	-0.343680202960968	0.75	0.0	0.0	1.0
0.4159276485443115	0.75	0.5614520311355591	0.0	1.0	0.0
0.75	0.3209545612335205	0.6296006441116333	1.0	0.0	0.0
0.02490752935409546	0.5929241180419922	-0.75	0.0	0.0	-1.0
-0.4995180666446686	-0.75	0.07881128787994385	0.0	-1.0	0.0
-0.75	0.6509244441986084	0.7020965814590454	-1.0	0.0	0.0
-0.6827607750892639	0.656379222869873	0.75	0.0	0.0	1.0
0.4888080358505249	0.75	-0.07044076919555664	0.0	1.0	0.0
0.75	0.015487313270568848	-0.4055013656616211	1.0	0.0	0.0
0.4101499319076538	0.1641291379928589	-0.75	0.0	0.0	-1.0
0.5187610387802124	-0.75	-0.2440871000289917	0.0	-1.0	0.0
-0.75	-0.380580872297287	0.3292168378829956	-1.0	0.0	0.0
-0.5011144280433655	-0.6075490713119507	0.75	0.0	0.0	1.0
-0.5805697441101074	0.75	0.7370278835296631	0.0	1.0	0.0
0.75	0.7333704233169556	-0.4659547805786133	1.0	0.0	0.0
0.7118604183197021	0.36259937286376953	-0.75	0.0	0.0	-1.0
-0.4406660199165344	-0.75	-0.3750401437282562	0.0	-1.0	0.0
-0.75	0.5742905139923096	0.4371159076690674	-1.0	0.0	0.0
0.6095077991485596	0.16651034355163574	0.75	0.0	0.0	1.0
0.4861851930618286	0.75	0.5929944515228271	0.0	1.0	0.0
0.75	0.5045439004898071	0.6707866191864014	1.0	0.0	0.0
0.5135717391967773	-0.19849973917007446	-0.75	0.0	0.0	-1.0
0.7065953016281128	-0.75	-0.5452543497085571	0.0	-1.0	0.0
-0.75	0.18091225624084473	0.0587536096572876	-1.0	0.0	0.0
0.275246262550354	0.1534179449081421	0.75	0.0	0.0	1.0
-0.7405307292938232	0.75	0.02501446008682251	0.0	1.0	0.0
0.75	-0.6451927423477173	0.6936676502227783	1.0	0.0	0.0
0.01855909824371338	-0.11139023303985596	-0.75	0.0	0.0	-1.0
0.4189584255218506	-0.75	0.4700791835784912	0.0	-1.0	0.0
-0.75	-0.6894716024398804	-0.433535635471344	-1.0	0.0	0.0
-0.6576642990112305	0.5553382635116577	0.75	0.0	0.0	1.0
0.66829514503479	0.75	-0.5485936403274536	0.0	1.0	0.0
0.75	-0.5393456220626831	0.30658650398254395	1.0	0.0	0.0
-0.27388885617256165	0.4955819845199585	-0.75	0.0	0.0	-1.0
0.411790132522583	-0.75	-0.16323119401931763	0.0	-1.0	0.0
-0.75	0.18539059162139893	0.6133121252059937	-1.0	0.0	0.0
0.29649829864501953	0.2162712812423706	0.75	0.0	0.0	1.0
0.6575945615768433	0.75	0.5637118816375732	0.0	1.0	0.0
0.75	-0.6519901156425476	-0.6823773384094238	1.0	0.0	0.0
-0.050096988677978516	-0.5487799644470215	-0.75	0.0	0.0	-1.0
-0.17167878150939941	-0.75	-0.7285444736480713	0.0	-1.0	0.0
-0.75	-0.3094635307788849	0.47339487075805664	-1.0	0.0	0.0
-0.5397897958755493	0.22172284126281738	0.75	0.0	0.0	1.0
-0.6174153685569763	0.75	0.38539958000183105	0.0	1.0	0.0
0.75	-0.42088383436203003	-0.17435789108276367	1.0	0.0	0.0
0.7308633327484131	0.041181206703186035	-0.75	0.0	0.0	-1.0
-0.2368394136428833	-0.75	-0.7036680579185486	0.0	-1.0	0.0
-0.75	0.7437889575958252	-0.3224928081035614	-1.0	0.0	0.0
-0.38444414734840393	-0.5200883150100708	0.75	0.0	0.0	1.0
0.046941280364990234	0.75	-0.3312806189060211	0.0	1.0	0.0
0.75	-0.6458996534347534	0.7494925260543823	1.0	0.0	0.0
-0.6181259155273438	-0.41655054688453674	-0.75	0.0	0.0	-1.0
0.5278257131576538	-0.75	-0.13589346408843994	0.0	-1.0	0.0
-0.75	-0.6522791385650635	-0.6066110730171204	-1.0	0.0	0.0
-0.2765531837940216	-0.379056841135025	0.75	0.0	0.0	1.0
-0.10835111141204834	0.75	0.1340276002883911	0.0	1.0	0.0
0.75	-0.4507271647453308	-0.041499316692352295	1.0	0.0	0.0
-0.4253828823566437	0.004822850227355957	-0.75	0.0	0.0	-1.0
0.5681071281433105	-0.75	0.3487236499786377	0.0	-1.0	0.0
-0.75	0.2927103042602539	-0.6943696737289429	-1.0	0.0	0.0
0.36383795738220215	-0.07856190204620361	0.75	0.0	0.0	1.0
-0.30476394295692444	0.75	-0.35573458671569824	0.0	1.0	0.0
0.75	-0.2549495995044708	0.5056689977645874	1.0	0.0	0.0
0.7125232219696045	0.7238168716430664	-0.75	0.0	0.0	-1.0
-0.3411714434623718	-0.75	0.22748374938964844	0.0	-1.0	0.0
-0.75	0.557249903678894	-0.23665738105773926	-1.0	0.0	0.0
0.23872357606887817	-0.5779126882553101	0.75	0.0	0.0	1.0
-0.4276782274246216	0.75	0.4966694116592407	0.0	1.0	0.0
0.75	0.3123660087585449	0.3668487071990967	1.0	0.0	0.0
0.07812845706939697	-0.585493803024292	-0.75	0.0	0.0	-1.0
0.41841185092926025	-0.75	-0.4479686915874481	0.0	-1.0	0.0
-0.75	0.27036046981811523	-0.5876873731613159	-1.0	0.0	0.0
-0.5920423269271851	0.6400127410888672	0.75	0.0	0.0	1.0
-0.2908852994441986	0.75	-0.42553505301475525	0.0	1.0	0.0
0.75	0.6333014965057373	-0.602444052696228	1.0	0.0	0.0
0.24675053358078003	0.6093323230743408	-0.75	0.0	0.0	-1.0
-0.3194962441921234	-0.75	-0.14060509204864502	0.0	-1.0	0.0
-0.75	-0.457026869058609	0.14026236534118652	-1.0	0.0	0.0
-0.3713859021663666	-0.21149230003356934	0.75	0.0	0.0	1.0
0.28162872791290283	0.75	0.00269240140914917	0.0	1.0	0.0
0.75	-0.10368472337722778	0.31763172149658203	1.0	0.0	0.0
-0.1561712622642517	0.23088610172271729	-0.75	0.0	0.0	-1.0
0.2820497751235962	-0.75	0.38196706771850586	0.0	-1.0	0.0
-0.75	-0.45689257979393005	-0.23197942972183228	-1.0	0.0	0.0
0.7322558164596558	-0.6968927979469299	0.75	0.0	0.0	1.0
0.12068212032318115	0.75	-0.5434443950653076	0.0	1.0	0.0
0.75	-0.465378999710083	0.19927692413330078	1.0	0.0	0.0
0.5133520364761353	-0.40364786982536316	-0.75	0.0	0.0	-1.0
-0.3118131458759308	-0.75	-0.4731081426143646	0.0	-1.0	0.0
-0.75	0.36150169372558594	-0.37503281235694885	-1.0	0.0	0.0
-0.7420558929443359	-0.38851529359817505	0.75	0.0	0.0	1.0
0.06842577457427979	0.75	-0.7456926107406616	0.0	1.0	0.0
0.75	-0.6553959846496582	-0.4105820953845978	1.0	0.0	0.0
0.6927132606506348	0.7088050842285156	-0.75	0.0	0.0	-1.0
0.024785637855529785	-0.75	-0.046120285987854004	0.0	-1.0	0.0
-0.75	-0.49484941363334656	0.5094168186187744	-1.0	0.0	0.0
-0.26417800784111023	-0.33078503608703613	0.75	0.0	0.0	1.0
0.024891436100006104	0.75	-0.31828147172927856	0.0	1.0	0.0
0.75	-0.11129969358444214	0.5034537315368652	1.0	0.0	0.0
0.36960935592651367	-0.7496629357337952	-0.75	0.0	0.0	-1.0
-0.43376094102859497	-0.75	0.696241021156311	0.0	-1.0	0.0
-0.75	-0.13968992233276367	-0.7035455703735352	-1.0	0.0	0.0
0.14398276805877686	0.5673552751541138	0.75	0.0	0.0	1.0
0.357891321182251	0.75	0.5992028713226318	0.0	1.0	0.0
0.75	0.34399592876434326	0.7490717172622681	1.0	0.0	0.0
0.33997154235839844	0.6937928199768066	-0.75	0.0	0.0	-1.0
0.6019139289855957	-0.75	0.7013452053070068	0.0	-1.0	0.0
-0.75	0.1546156406402588	-0.27504685521125793	-1.0	0.0	0.0
-0.29304376244544983	-0.42135679721832275	0.75	0.0	0.0	1.0
0.04874306917190552	0.75	0.3640943765640259	0.0	1.0	0.0
0.75	0.0980454683303833	0.4547111988067627	1.0	0.0	0.0
0.3741651773452759	-0.6793570518493652	-0.75	0.0	0.0	-1.0
-0.3043263852596283	-0.75	0.4779181480407715	0.0	-1.0	0.0
-0.75	-0.5551520586013794	-0.13112950325012207	-1.0	0.0	0.0
-0.7245728373527527	0.17294704914093018	0.75	0.0	0.0	1.0
-0.5356277227401733	0.75	-0.677213191986084	0.0	1.0	0.0
0.75	0.13669085502624512	-0.4977521002292633	1.0	0.0	0.0
0.18193936347961426	-0.0253259539604187	-0.75	0.0	0.0	-1.0
0.5322824716567993	-0.75	0.41646242141723633	0.0	-1.0	0.0
-0.75	-0.10954451560974121	-0.7134077548980713	-1.0	0.0	0.0
-0.6333830952644348	-0.07221651077270508	0.75	0.0	0.0	1.0
-0.6516144275665283	0.75	0.3977084159851074	0.0	1.0	0.0
0.75	-0.7381764650344849	-0.6203364133834839	1.0	0.0	0.0
-0.6545695066452026	0.615114688873291	-0.75	0.0	0.0	-1.0
-0.5380287766456604	-0.75	0.5318338871002197	0.0	-1.0	0.0
-0.75	0.5045990943908691	-0.03502732515335083	-1.0	0.0	0.0
-0.44193094968795776	0.05771982669830322	0.75	0.0	0.0	1.0
-0.08473801612854004	0.75	0.6347627639770508	0.0	1.0	0.0
0.75	0.05794477462768555	-0.21786653995513916	1.0	0.0	0.0
0.6545952558517456	0.0073819756507873535	-0.75	0.0	0.0	-1.0
0.11298012733459473	-0.75	-0.23626470565795898	0.0	-1.0	0.0
-0.75	-0.5109370946884155	-0.6262874603271484	-1.0	0.0	0.0
0.22325187921524048	0.47903943061828613	0.75	0.0	0.0	1.0
0.3017336130142212	0.75	0.37709271907806396	0.0	1.0	0.0
0.75	0.3693506717681885	0.3893009424209595	1.0	0.0	0.0
-0.6203615069389343	0.32224881649017334	-0.75	0.0	0.0	-1.0
0.08730208873748779	-0.75	0.04704296588897705	0.0	-1.0	0.0
-0.75	0.4921884536743164	-0.46271082758903503	-1.0	0.0	0.0
-0.24119162559509277	0.1640087366104126	0.75	0.0	0.0	1.0
-0.6016232371330261	0.75	-0.6904975175857544	0.0	1.0	0.0
0.75	0.657246470451355	0.6221048831939697	1.0	0.0	0.0
-0.07596713304519653	-0.31363382935523987	-0.75	0.0	0.0	-1.0
-0.0173833966255188	-0.75	-0.6850465536117554	0.0	-1.0	0.0
-0.75	-0.5303583741188049	-0.5744038224220276	-1.0	0.0	0.0
-0.18721401691436768	0.6014384031295776	0.75	0.0	0.0	1.0
-0.6497105360031128	0.75	0.423564076423645	0.0	1.0	0.0
0.75	-0.2000488042831421	-0.5469006299972534	1.0	0.0	0.0
-0.3262925148010254	-0.24950569868087769	-0.75	0.0	0.0	-1.0
0.3140833377838135	-0.75	0.6137862205505371	0.0	-1.0	0.0
-0.75	-0.5870342254638672	0.627835750579834	-1.0	0.0	0.0
-0.4455341398715973	0.4915015697479248	0.75	0.0	0.0	1.0
-0.08950543403625488	0.75	0.19669663906097412	0.0	1.0	0.0
0.75	-0.3106561303138733	-0.15472412109375	1.0	0.0	0.0
-0.5432286262512207	0.13402163982391357	-0.75	0.0	0.0	-1.0
-0.01787012815475464	-0.75	0.282138466835022	0.0	-1.0	0.0
-0.75	-0.7352584600448608	-0.6413400173187256	-1.0	0.0	0.0
-0.36289045214653015	0.14129793643951416	0.75	0.0	0.0	1.0
-0.49189049005508423	0.75	0.24099814891815186	0.0	1.0	0.0
0.75	-0.2031763792037964	-0.581008791923523	1.0	0.0	0.0
-0.29574868083000183	0.7215931415557861	-0.75	0.0	0.0	-1.0
-0.7000656723976135	-0.75	0.6406698226928711	0.0	-1.0	0.0
-0.75	-0.15109288692474365	0.1315929889678955	-1.0	0.0	0.0
0.3296095132827759	-0.16423141956329346	0.75	0.0	0.0	1.0
-0.26264798641204834	0.75	0.6219711303710938	0.0	1.0	0.0
0.75	-0.1661062240600586	0.2984743118286133	1.0	0.0	0.0
-0.27632850408554077	-0.2919839322566986	-0.75	0.0	0.0	-1.0
-0.5176244974136353	-0.75	0.6409745216369629	0.0	-1.0	0.0
-0.75	-0.14985477924346924	0.6798851490020752	-1.0	0.0	0.0
0.09602999687194824	0.028348207473754883	0.75	0.0	0.0	1.0
0.7226238250732422	0.75	0.5857973098754883	0.0	1.0	0.0
0.75	-0.4202013909816742	0.35050249099731445	1.0	0.0	0.0
-0.026834070682525635	0.5765329599380493	-0.75	0.0	0.0	-1.0
-0.41281628608703613	-0.75	0.6275026798248291	0.0	-1.0	0.0
-0.75	0.3789222240447998	-0.0564996600151062	-1.0	0.0	0.0
-0.6019140481948853	0.03789937496185303	0.75	0.0	0.0	1.0
-0.46019330620765686	0.75	-0.1642225980758667	0.0	1.0	0.0
0.75	0.09552621841430664	0.6980575323104858	1.0	0.0	0.0
0.5520254373550415	-0.4512360692024231	-0.75	0.0	0.0	-1.0
-0.28242596983909607	-0.75	-0.37680307030677795	0.0	-1.0	0.0
-0.75	-0.47596728801727295	-0.1854621171951294	-1.0	0.0	0.0
-0.4969082772731781	-0.548974335193634	0.75	0.0	0.0	1.0
0.6180362701416016	0.75	0.7367815971374512	0.0	1.0	0.0
0.75	-0.06209367513656616	0.016009211540222168	1.0	0.0	0.0
-0.4456390142440796	0.713416576385498	-0.75	0.0	0.0	-1.0
0.17818880081176758	-0.75	-0.3157721757888794	0.0	-1.0	0.0
-0.75	-0.01632380485534668	0.5074520111083984	-1.0	0.0	0.0
0.3237473964691162	0.5663764476776123	0.75	0.0	0.0	1.0
0.08076685667037964	0.75	0.04913896322250366	0.0	1.0	0.0
0.75	-0.07476586103439331	-0.5383663773536682	1.0	0.0	0.0
0.26516735553741455	0.6838853359222412	-0.75	0.0	0.0	-1.0
-0.36717715859413147	-0.75	-0.08333098888397217	0.0	-1.0	0.0
-0.75	0.6563323736190796	0.33049702644348145	-1.0	0.0	0.0
0.7327176332473755	0.6400159597396851	0.75	0.0	0.0	1.0
-0.32438725233078003	0.75	0.39201247692108154	0.0	1.0	0.0
0.75	0.6949423551559448	0.3800075054168701	1.0	0.0	0.0
0.5143752098083496	0.6429681777954102	-0.75	0.0	0.0	-1.0
0.12010598182678223	-0.75	0.46512413024902344	0.0	-1.0	0.0
-0.75	-0.6192545890808105	-0.3306530714035034	-1.0	0.0	0.0
-0.002234220504760742	-0.6354215741157532	0.75	0.0	0.0	1.0
-0.281345933675766	0.75	0.2480294108390808	0.0	1.0	0.0
0.75	-0.5990935564041138	-0.004157960414886475	1.0	0.0	0.0
0.06398129463195801	0.41394591331481934	-0.75	0.0	0.0	-1.0
0.19260036945343018	-0.75	-0.2796149253845215	0.0	-1.0	0.0
-0.75	0.04523897171020508	-0.5060842037200928	-1.0	0.0	0.0
0.37139201164245605	0.3233867883682251	0.75	0.0	0.0	1.0
-0.47313031554222107	0.75	-0.10190516710281372	0.0	1.0	0.0
0.75	0.21827352046966553	0.4842495918273926	1.0	0.0	0.0
0.659502387046814	0.49694955348968506	-0.75	0.0	0.0	-1.0
0.2504997253417969	-0.75	-0.21105355024337769	0.0	-1.0	0.0
-0.75	-0.7476090788841248	-0.5767771005630493	-1.0	0.0	0.0
0.591773509979248	-0.01705491542816162	0.75	0.0	0.0	1.0
0.7481977939605713	0.75	0.5964813232421875	0.0	1.0	0.0
0.75	0.15816110372543335	0.6838619709014893	1.0	0.0	0.0
0.35331177711486816	0.5533989667892456	-0.75	0.0	0.0	-1.0
-0.5629768371582031	-0.75	0.634919285774231	0.0	-1.0	0.0
-0.75	0.26815521717071533	0.5110138654708862	-1.0	0.0	0.0
-0.0443422794342041	-0.6665523052215576	0.75	0.0	0.0	1.0
0.45362722873687744	0.75	-0.2312455177307129	0.0	1.0	0.0
0.75	-0.5737576484680176	-0.26508280634880066	1.0	0.0	0.0
0.22292101383209229	-0.4222257435321808	-0.75	0.0	0.0	-1.0
-0.2661650776863098	-0.75	-0.3224307596683502	0.0	-1.0	0.0
-0.75	0.5806887149810791	0.12573719024658203	-1.0	0.0	0.0
-0.1385459303855896	0.07190823554992676	0.75	0.0	0.0	1.0
-0.34079012274742126	0.75	0.47579288482666016	0.0	1.0	0.0
0.75	-0.3548976480960846	0.32477521896362305	1.0	0.0	0.0
-0.568611741065979	0.2953503131866455	-0.75	0.0	0.0	-1.0
0.3446953296661377	-0.75	0.1603798270225525	0.0	-1.0	0.0
-0.75	-0.5445218682289124	0.6413959264755249	-1.0	0.0	0.0
-0.6198849678039551	0.12042438983917236	0.75	0.0	0.0	1.0
-0.533313512802124	0.75	-0.5663367509841919	0.0	1.0	0.0
0.75	-0.4388573169708252	-0.18891781568527222	1.0	0.0	0.0
0.23492634296417236	0.08857262134552002	-0.75	0.0	0.0	-1.0
0.6862156391143799	-0.75	-0.5791680812835693	0.0	-1.0	0.0
-0.75	0.15279436111450195	0.48653221130371094	-1.0	0.0	0.0
0.5009124279022217	-0.30581241846084595	0.75	0.0	0.0	1.0
-0.4757774770259857	0.75	-0.7094548940658569	0.0	1.0	0.0
0.75	-0.3379080891609192	-0.45597124099731445	1.0	0.0	0.0
-0.05895066261291504	-0.3529247045516968	-0.75	0.0	0.0	-1.0
0.470902681350708	-0.75	0.6264384984970093	0.0	-1.0	0.0
-0.75	0.43134164810180664	0.31256842613220215	-1.0	0.0	0.0
0.5175260305404663	-0.37247470021247864	0.75	0.0	0.0	1.0
-0.04513061046600342	0.75	-0.45188355445861816	0.0	1.0	0.0
0.75	0.11101412773132324	0.26763057708740234	1.0	0.0	0.0
-0.6681349277496338	0.6517691612243652	-0.75	0.0	0.0	-1.0
-0.20774364471435547	-0.75	0.6827316284179688	0.0	-1.0	0.0
-0.75	-0.1985175609588623	-0.40227752923965454	-1.0	0.0	0.0
-0.1046212911605835	-0.5752304792404175	0.75	0.0	0.0	1.0
-0.07637953758239746	0.75	-0.6206967830657959	0.0	1.0	0.0
0.75	0.43811118602752686	-0.22672009468078613	1.0	0.0	0.0
0.24580031633377075	0.017238378524780273	-0.75	0.0	0.0	-1.0
-0.1450510025024414	-0.75	-0.3033486306667328	0.0	-1.0	0.0
-0.75	-0.3628007769584656	0.2211778163909912	-1.0	0.0	0.0
0.02387791872024536	-0.2248293161392212	0.75	0.0	0.0	1.0
0.5403162240982056	0.75	0.6470681428909302	0.0	1.0	0.0
0.75	-0.0894012451171875	0.3433021306991577	1.0	0.0	0.0
-0.18137240409851074	0.5044444799423218	-0.75	0.0	0.0	-1.0
-0.3348841667175293	-0.75	-0.3028964102268219	0.0	-1.0	0.0
-0.75	0.5480663776397705	-0.1872783899307251	-1.0	0.0	0.0
0.08435940742492676	0.23041892051696777	0.75	0.0	0.0	1.0
0.11265575885772705	0.75	0.4249405860900879	0.0	1.0	0.0
0.75	0.2902524471282959	0.5627225637435913	1.0	0.0	0.0
-0.2406790852546692	-0.08374214172363281	-0.75	0.0	0.0	-1.0
-0.5856337547302246	-0.75	-0.055058956146240234	0.0	-1.0	0.0
-0.75	0.5483211278915405	0.03245949745178223	-1.0	0.0	0.0
-0.6732436418533325	0.09591352939605713	0.75	0.0	0.0	1.0
-0.17703098058700562	0.75	-0.3098965287208557	0.0	1.0	0.0
0.75	0.5447814464569092	0.1127670407295227	1.0	0.0	0.0
0.24204057455062866	0.14229583740234375	-0.75	0.0	0.0	-1.0
-0.30277445912361145	-0.75	0.22662174701690674	0.0	-1.0	0.0
-0.75	-0.11222946643829346	0.625046968460083	-1.0	0.0	0.0
-0.2624731957912445	0.17386209964752197	0.75	0.0	0.0	1.0
-0.485632985830307	0.75	-0.18825191259384155	0.0	1.0	0.0
0.75	-0.16305279731750488	-0.3068559765815735	1.0	0.0	0.0
0.724638819694519	-0.3468722999095917	-0.75	0.0	0.0	-1.0
0.4883965253829956	-0.75	0.5960469245910645	0.0	-1.0	0.0
-0.75	-0.14834171533584595	0.15887892246246338	-1.0	0.0	0.0
0.10320174694061279	-0.5380189418792725	0.75	0.0	0.0	1.0
0.4335339069366455	0.75	-0.2264176607131958	0.0	1.0	0.0
0.75	-0.42964643239974976	-0.18173199892044067	1.0	0.0	0.0
0.648987889289856	0.47923946380615234	-0.75	0.0	0.0	-1.0
-0.004976630210876465	-0.75	0.13591527938842773	0.0	-1.0	0.0
-0.75	0.03948032855987549	-0.4565497040748596	-1.0	0.0	0.0
-0.6555467247962952	-0.40155020356178284	0.75	0.0	0.0	1.0
-0.11359357833862305	0.75	-0.3923790156841278	0.0	1.0	0.0
0.75	-0.3474530875682831	-0.6387538909912109	1.0	0.0	0.0
0.16250956058502197	0.4636411666870117	-0.75	0.0	0.0	-1.0
-0.14004188776016235	-0.75	0.34063720703125	0.0	-1.0	0.0
-0.75	0.5638220310211182	0.4305316209793091	-1.0	0.0	0.0
-0.48075029253959656	-0.07568037509918213	0.75	0.0	0.0	1.0
0.25669074058532715	0.75	0.7462109327316284	0.0	1.0	0.0
0.75	0.5049533843994141	0.46446549892425537	1.0	0.0	0.0
0.6757276058197021	0.7146368026733398	-0.75	0.0	0.0	-1.0
0.015175223350524902	-0.75	-0.07898390293121338	0.0	-1.0	0.0
-0.75	0.7037330865859985	-0.6948336362838745	-1.0	0.0	0.0
0.004106402397155762	0.5835204124450684	0.75	0.0	0.0	1.0
0.15743112564086914	0.75	-0.5590509176254272	0.0	1.0	0.0
0.75	-0.10755670070648193	-0.09804379940032959	1.0	0.0	0.0
-0.26364362239837646	0.5744204521179199	-0.75	0.0	0.0	-1.0
-0.504170298576355	-0.75	0.5846097469329834	0.0	-1.0	0.0
-0.75	0.720383882522583	0.4800124168395996	-1.0	0.0	0.0
-0.29057979583740234	0.7263796329498291	0.75	0.0	0.0	1.0
-0.15997767448425293	0.75	-0.6818140745162964	0.0	1.0	0.0
0.75	-0.010192394256591797	-0.5757606029510498	1.0	0.0	0.0
-0.698140025138855	-0.08748221397399902	-0.75	0.0	0.0	-1.0
-0.570469856262207	-0.75	-0.5620402693748474	0.0	-1.0	0.0
-0.75	0.2552220821380615	-0.610614001750946	-1.0	0.0	0.0
-0.43773767352104187	-0.071533203125	0.75	0.0	0.0	1.0
0.6624996662139893	0.75	-0.45288366079330444	0.0	1.0	0.0
0.75	0.45994865894317627	0.7254147529602051	1.0	0.0	0.0
-0.6004835367202759	0.605392336845398	-0.75	0.0	0.0	-1.0
-0.4669617712497711	-0.75	0.7094696760177612	0.0	-1.0	0.0
-0.75	-0.43391919136047363	-0.25857335329055786	-1.0	0.0	0.0
0.6894882917404175	0.36726558208465576	0.75	0.0	0.0	1.0
-0.018706977367401123	0.75	0.5061595439910889	0.0	1.0	0.0
0.75	0.16737699508666992	0.29722368717193604	1.0	0.0	0.0
0.15310382843017578	0.010038495063781738	-0.75	0.0	0.0	-1.0
0.16492855548858643	-0.75	-0.5901387929916382	0.0	-1.0	0.0
-0.75	0.6427125930786133	-0.3484776020050049	-1.0	0.0	0.0
0.6058495044708252	0.473311185836792	0.75	0.0	0.0	1.0
0.09908759593963623	0.75	-0.1855252981185913	0.0	1.0	0.0
0.75	-0.4251134991645813	0.41638195514678955	1.0	0.0	0.0
0.5228471755981445	0.5243546962738037	-0.75	0.0	0.0	-1.0
-0.662850022315979	-0.75	-0.00685197114944458	0.0	-1.0	0.0
-0.75	-0.49470072984695435	-0.06569766998291016	-1.0	0.0	0.0
0.34335899353027344	0.13205242156982422	0.75	0.0	0.0	1.0
-0.519156813621521	0.75	-0.6935053467750549	0.0	1.0	0.0
0.75	0.108714759349823	0.0224570631980896	1.0	0.0	0.0
-0.6787377595901489	-0.4924030601978302	-0.75	0.0	0.0	-1.0
0.5911601781845093	-0.75	-0.04251754283905029	0.0	-1.0	0.0
-0.75	-0.5465428233146667	-0.0188828706741333	-1.0	0.0	0.0
-0.02026951313018799	0.419430136680603	0.75	0.0	0.0	1.0
0.2973642349243164	0.75	0.08652758598327637	0.0	1.0	0.0
0.75	0.2184382677078247	0.0736466646194458	1.0	0.0	0.0
-0.12487882375717163	-0.28374597430229187	-0.75	0.0	0.0	-1.0
-0.6687159538269043	-0.75	0.03666090965270996	0.0	-1.0	0.0
-0.75	0.7038133144378662	0.43477439880371094	-1.0	0.0	0.0
-0.7293845415115356	0.2738981246948242	0.75	0.0	0.0	1.0
0.46721553802490234	0.75	-0.3157055675983429	0.0	1.0	0.0
0.75	-0.35181373357772827	0.2556629180908203	1.0	0.0	0.0
0.29428720474243164	0.26163530349731445	-0.75	0.0	0.0	-1.0
0.1962488889694214	-0.75	-0.42504528164863586	0.0	-1.0	0.0
-0.75	-0.2553632855415344	-0.395137757062912	-1.0	0.0	0.0
0.02847301959991455	0.5036134719848633	0.75	0.0	0.0	1.0
0.46195006370544434	0.75	0.428655743598938	0.0	1.0	0.0
0.75	-0.18578886985778809	0.7266964912414551	1.0	0.0	0.0
0.4918626546859741	-0.6881874203681946	-0.75	0.0	0.0	-1.0
0.6087555885314941	-0.75	0.022144317626953125	0.0	-1.0	0.0
-0.75	0.1868431568145752	0.563512921333313	-1.0	0.0	0.0
-0.44831496477127075	0.6324034929275513	0.75	0.0	0.0	1.0
0.061361074447631836	0.75	0.3924427032470703	0.0	1.0	0.0
0.75	-0.48546579480171204	-0.15426981449127197	1.0	0.0	0.0
0.07034409046173096	0.14699006080627441	-0.75	0.0	0.0	-1.0
0.19907164573669434	-0.75	0.2842094898223877	0.0	-1.0	0.0
-0.75	0.5744554996490479	-0.20445001125335693	-1.0	0.0	0.0
0.6440359354019165	0.47318851947784424	0.75	0.0	0.0	1.0
-0.6731386184692383	0.75	0.5902862548828125	0.0	1.0	0.0
0.75	0.7116594314575195	-0.1660589575767517	1.0	0.0	0.0
-0.10975182056427002	-0.6556465029716492	-0.75	0.0	0.0	-1.0
0.5131276845932007	-0.75	0.26879048347473145	0.0	-1.0	0.0
-0.75	0.13390249013900757	0.18194496631622314	-1.0	0.0	0.0
-0.21112704277038574	-0.6311497092247009	0.75	0.0	0.0	1.0
-0.10793149471282959	0.75	0.6315596103668213	0.0	1.0	0.0
0.75	0.4182310104370117	-0.026920199394226074	1.0	0.0	0.0
0.5922126770019531	0.5495122671127319	-0.75	0.0	0.0	-1.0
-0.48483341932296753	-0.75	-0.49370330572128296	0.0	-1.0	0.0
-0.75	-0.5546393394470215	0.026748955249786377	-1.0	0.0	0.0
0.47447216510772705	-0.2848685681819916	0.75	0.0	0.0	1.0
-0.4869740903377533	0.75	0.3485804796218872	0.0	1.0	0.0
0.75	0.1547589898109436	-0.39934292435646057	1.0	0.0	0.0
-0.5400623083114624	0.08602899312973022	-0.75	0.0	0.0	-1.0
-0.6270288228988647	-0.75	-0.7321938276290894	0.0	-1.0	0.0
-0.75	-0.38142290711402893	0.20035803318023682	-1.0	0.0	0.0
0.7060573101043701	0.7332758903503418	0.75	0.0	0.0	1.0
0.6572167873382568	0.75	0.34844446182250977	0.0	1.0	0.0
0.75	0.04388153553009033	-0.35401850938796997	1.0	0.0	0.0
-0.5109750032424927	-0.3461070656776428	-0.75	0.0	0.0	-1.0
-0.745060920715332	-0.75	0.11752921342849731	0.0	-1.0	0.0
-0.75	0.5839040279388428	-0.6776517033576965	-1.0	0.0	0.0
0.6334930658340454	-0.6406654715538025	0.75	0.0	0.0	1.0
0.19492703676223755	0.75	0.4484901428222656	0.0	1.0	0.0
0.75	0.5988996028900146	-0.029922127723693848	1.0	0.0	0.0
0.15551745891571045	-0.24309265613555908	-0.75	0.0	0.0	-1.0
-0.7318952679634094	-0.75	-0.02831709384918213	0.0	-1.0	0.0
-0.75	0.276228666305542	0.3837146759033203	-1.0	0.0	0.0
0.7230753898620605	-0.6155181527137756	0.75	0.0	0.0	1.0
0.18050110340118408	0.75	-0.5359495282173157	0.0	1.0	0.0
0.75	0.023147225379943848	-0.21852147579193115	1.0	0.0	0.0
-0.36589282751083374	-0.08063125610351562	-0.75	0.0	0.0	-1.0
-0.256897509098053	-0.75	0.20896267890930176	0.0	-1.0	0.0
-0.75	-0.45836949348449707	-0.7191570997238159	-1.0	0.0	0.0
0.43280208110809326	-0.11395508050918579	0.75	0.0	0.0	1.0
-0.6761984825134277	0.75	0.22517269849777222	0.0	1.0	0.0
0.75	-0.13595664501190186	-0.5691667795181274	1.0	0.0	0.0
0.2974802255630493	0.7179458141326904	-0.75	0.0	0.0	-1.0
0.02538353204727173	-0.75	0.4910314083099365	0.0	-1.0	0.0
-0.75	-0.5527644753456116	-0.5866865515708923	-1.0	0.0	0.0
0.5007572174072266	0.23843783140182495	0.75	0.0	0.0	1.0
-0.4122917354106903	0.75	0.09447228908538818	0.0	1.0	0.0
0.75	0.11946320533752441	0.06868171691894531	1.0	0.0	0.0
-0.2386760115623474	-0.5402023792266846	-0.75	0.0	0.0	-1.0
0.08035707473754883	-0.75	-0.6802027225494385	0.0	-1.0	0.0
-0.75	-0.05446159839630127	0.0374143123626709	-1.0	0.0	0.0
-0.6199955940246582	0.3754676580429077	0.75	0.0	0.0	1.0
0.36465656757354736	0.75	0.5165600776672363	0.0	1.0	0.0
0.75	-0.6817097067832947	-0.41822996735572815	1.0	0.0	0.0
-0.2139396071434021	0.4078378677368164	-0.75	0.0	0.0	-1.0
-0.520177960395813	-0.75	0.19940185546875	0.0	-1.0	0.0
-0.75	-0.1852400302886963	-0.6560109257698059	-1.0	0.0	0.0
-0.24833232164382935	0.30175554752349854	0.75	0.0	0.0	1.0
0.49594151973724365	0.75	0.12371158599853516	0.0	1.0	0.0
0.75	-0.558759331703186	-0.6684470176696777	1.0	0.0	0.0
0.3134274482727051	0.2769883871078491	-0.75	0.0	0.0	-1.0
0.6943929195404053	-0.75	0.4736582040786743	0.0	-1.0	0.0
-0.75	0.4745297431945801	-0.17304056882858276	-1.0	0.0	0.0
0.3143724203109741	0.4119877815246582	0.75	0.0	0.0	1.0
0.1822870373725891	0.75	-0.540175199508667	0.0	1.0	0.0
0.75	0.2629314661026001	-0.1714966893196106	1.0	0.0	0.0
0.30031299591064453	0.6614296436309814	-0.75	0.0	0.0	-1.0
0.22844427824020386	-0.75	0.2109929323196411	0.0	-1.0	0.0
-0.75	-0.09361422061920166	0.14966607093811035	-1.0	0.0	0.0
-0.5859094262123108	-0.36796241998672485	0.75	0.0	0.0	1.0
-0.1272977590560913	0.75	-0.05338287353515625	0.0	1.0	0.0
0.75	0.2653135061264038	-0.6117205023765564	1.0	0.0	0.0
0.21436059474945068	0.3211822509765625	-0.75	0.0	0.0	-1.0
0.5909545421600342	-0.75	-0.10322839021682739	0.0	-1.0	0.0
-0.75	0.5603317022323608	-0.5687882900238037	-1.0	0.0	0.0
0.7488185167312622	0.22218257188796997	0.75	0.0	0.0	1.0
-0.47235381603240967	0.75	-0.009205520153045654	0.0	1.0	0.0
0.75	-0.1924479603767395	-0.3078969419002533	1.0	0.0	0.0
-0.2547227740287781	0.617117166519165	-0.75	0.0	0.0	-1.0
0.5204460620880127	-0.75	0.6262009143829346	0.0	-1.0	0.0
-0.75	0.008827686309814453	-0.1969926357269287	-1.0	0.0	0.0
0.4967285394668579	0.15267527103424072	0.75	0.0	0.0	1.0
-0.6487213373184204	0.75	-0.2937146723270416	0.0	1.0	0.0
0.75	0.4189000129699707	0.24871498346328735	1.0	0.0	0.0
-0.04063725471496582	0.1806638240814209	-0.75	0.0	0.0	-1.0
-0.16174811124801636	-0.75	0.41448771953582764	0.0	-1.0	0.0
-0.75	-0.09310257434844971	0.4064936637878418	-1.0	0.0	0.0
-0.33436131477355957	0.7064375877380371	0.75	0.0	0.0	1.0
0.6762216091156006	0.75	0.41382598876953125	0.0	1.0	0.0
0.75	-0.49117138981819153	-0.011819422245025635	1.0	0.0	0.0
0.03894376754760742	-0.5273838043212891	-0.75	0.0	0.0	-1.0
-0.003816068172454834	-0.75	-0.5550968647003174	0.0	-1.0	0.0
-0.75	-0.679312527179718	-0.23522472381591797	-1.0	0.0	0.0
-0.3089859187602997	0.27835988998413086	0.75	0.0	0.0	1.0
0.16679120063781738	0.75	-0.1573655605316162	0.0	1.0	0.0
0.75	0.055012643337249756	0.3265552520751953	1.0	0.0	0.0
-0.09158366918563843	-0.5506824254989624	-0.75	0.0	0.0	-1.0
0.49392056465148926	-0.75	0.4481997489929199	0.0	-1.0	0.0
-0.75	0.19445383548736572	-0.22034049034118652	-1.0	0.0	0.0
0.6985814571380615	0.32787108421325684	0.75	0.0	0.0	1.0
0.17929506301879883	0.75	-0.7388014793395996	0.0	1.0	0.0
0.75	0.6178878545761108	-0.5020042657852173	1.0	0.0	0.0
-0.3544612526893616	0.3213620185852051	-0.75	0.0	0.0	-1.0
-0.2240302562713623	-0.75	-0.44526931643486023	0.0	-1.0	0.0
-0.75	-0.05196225643157959	-0.49365806579589844	-1.0	0.0	0.0
-0.6082625389099121	0.4393150806427002	0.75	0.0	0.0	1.0
-0.7010302543640137	0.75	0.3344329595565796	0.0	1.0	0.0
0.75	-0.03664827346801758	0.3969672918319702	1.0	0.0	0.0
-0.05150735378265381	-0.6670909523963928	-0.75	0.0	0.0	-1.0
0.19756954908370972	-0.75	-0.3465363085269928	0.0	-1.0	0.0
-0.75	-0.09792864322662354	-0.3403732180595398	-1.0	0.0	0.0
0.2269497513771057	-0.3587413430213928	0.75	0.0	0.0	1.0
0.1455545425415039	0.75	-0.23923784494400024	0.0	1.0	0.0
0.75	-0.33762064576148987	0.13473081588745117	1.0	0.0	0.0
-0.1757764220237732	-0.2841242551803589	-0.75	0.0	0.0	-1.0
0.19047260284423828	-0.75	0.5049437284469604	0.0	-1.0	0.0
-0.75	0.09354829788208008	-0.39591532945632935	-1.0	0.0	0.0
0.6720978021621704	-0.008248209953308105	0.75	0.0	0.0	1.0
-0.19220507144927979	0.75	0.6578230857849121	0.0	1.0	0.0
0.75	0.584882378578186	-0.3380865454673767	1.0	0.0	0.0
-0.6967555284500122	-0.36261552572250366	-0.75	0.0	0.0	-1.0
0.03147566318511963	-0.75	0.5830237865447998	0.0	-1.0	0.0
-0.75	0.3026871681213379	0.6350016593933105	-1.0	0.0	0.0
0.4202016592025757	0.1637864112854004	0.75	0.0	0.0	1.0
-0.6022046804428101	0.75	0.39065074920654297	0.0	1.0	0.0
0.75	-0.1084362268447876	-0.19386273622512817	1.0	0.0	0.0
-0.10472738742828369	0.10165894031524658	-0.75	0.0	0.0	-1.0
0.16933751106262207	-0.75	0.01379251480102539	0.0	-1.0	0.0
-0.75	-0.1785811185836792	0.37441253662109375	-1.0	0.0	0.0
0.1242322325706482	0.008623719215393066	0.75	0.0	0.0	1.0
-0.677405834197998	0.75	-0.5910953283309937	0.0	1.0	0.0
0.75	0.6870167255401611	0.31808269023895264	1.0	0.0	0.0
-0.5428522825241089	0.48082876205444336	-0.75	0.0	0.0	-1.0
-0.4997577667236328	-0.75	-0.4780037999153137	0.0	-1.0	0.0
-0.75	-0.28945523500442505	-0.6736223101615906	-1.0	0.0	0.0
0.6212204694747925	-0.24499142169952393	0.75	0.0	0.0	1.0
-0.48602262139320374	0.75	-0.46634575724601746	0.0	1.0	0.0
0.75	-0.16194367408752441	0.3229067325592041	1.0	0.0	0.0
0.31166696548461914	-0.7476134300231934	-0.75	0.0	0.0	-1.0
-0.49972406029701233	-0.75	0.680023193359375	0.0	-1.0	0.0
-0.75	-0.48238930106163025	-0.4551738202571869	-1.0	0.0	0.0
-0.21971595287322998	0.12307703495025635	0.75	0.0	0.0	1.0
0.09998220205307007	0.75	0.076668381690979	0.0	1.0	0.0
0.75	-0.0004991292953491211	0.41457271575927734	1.0	0.0	0.0
0.3855220079421997	0.5730733871459961	-0.75	0.0	0.0	-1.0
-0.33983802795410156	-0.75	0.13477087020874023	0.0	-1.0	0.0
-0.75	-0.368296355009079	0.6930909156799316	-1.0	0.0	0.0
0.5688786506652832	0.7195968627929688	0.75	0.0	0.0	1.0
-0.6067196130752563	0.75	-0.7209985256195068	0.0	1.0	0.0
0.75	-0.15964603424072266	0.05200469493865967	1.0	0.0	0.0
0.7201790809631348	-0.047045111656188965	-0.75	0.0	0.0	-1.0
-0.4504333734512329	-0.75	0.23269182443618774	0.0	-1.0	0.0
-0.75	-0.2933128774166107	-0.08054256439208984	-1.0	0.0	0.0
-0.0659131407737732	0.6935747861862183	0.75	0.0	0.0	1.0
-0.5143827795982361	0.75	0.47543609142303467	0.0	1.0	0.0
0.75	-0.1861121654510498	0.016289353370666504	1.0	0.0	0.0
0.6597765684127808	-0.5485748052597046	-0.75	0.0	0.0	-1.0
-0.04357677698135376	-0.75	0.24284517765045166	0.0	-1.0	0.0
-0.75	-0.2300335168838501	0.08298492431640625	-1.0	0.0	0.0
-0.4613074064254761	0.03398025035858154	0.75	0.0	0.0	1.0
0.33149683475494385	0.75	-0.19028103351593018	0.0	1.0	0.0
0.75	-0.5050697326660156	-0.23035168647766113	1.0	0.0	0.0
-0.7392245531082153	0.041686415672302246	-0.75	0.0	0.0	-1.0
0.12945222854614258	-0.75	-0.2941756546497345	0.0	-1.0	0.0
-0.75	0.35061728954315186	0.18938779830932617	-1.0	0.0	0.0
0.45484161376953125	0.1670602560043335	0.75	0.0	0.0	1.0
0.2499483823776245	0.75	-0.24538761377334595	0.0	1.0	0.0
0.75	-0.6905288696289062	0.6034262180328369	1.0	0.0	0.0
-0.6441494822502136	0.12055939435958862	-0.75	0.0	0.0	-1.0
0.08612954616546631	-0.75	0.24580800533294678	0.0	-1.0	0.0
-0.75	-0.2046070098876953	-0.05209946632385254	-1.0	0.0	0.0
-0.6902517080307007	0.30069398880004883	0.75	0.0	0.0	1.0
0.340207576751709	0.75	-0.7291549444198608	0.0	1.0	0.0
0.75	-0.7109259366989136	0.4528588056564331	1.0	0.0	0.0
0.6651904582977295	0.5850424766540527	-0.75	0.0	0.0	-1.0
-0.2194507122039795	-0.75	-0.005350470542907715	0.0	-1.0	0.0
-0.75	-0.0663079023361206	0.5224651098251343	-1.0	0.0	0.0
-0.6809391975402832	-0.18643909692764282	0.75	0.0	0.0	1.0
-0.6038122177124023	0.75	0.23714429140090942	0.0	1.0	0.0
0.75	0.16499149799346924	0.6405255794525146	1.0	0.0	0.0
0.4626343250274658	-0.4397083818912506	-0.75	0.0	0.0	-1.0
-0.4216342270374298	-0.75	0.15364444255828857	0.0	-1.0	0.0
-0.75	-0.5769320726394653	0.09041285514831543	-1.0	0.0	0.0
-0.08019161224365234	-0.37230196595191956	0.75	0.0	0.0	1.0
-0.019617199897766113	0.75	0.21479344367980957	0.0	1.0	0.0
0.75	0.2462843656539917	-0.6897863745689392	1.0	0.0	0.0
0.26519501209259033	0.5407334566116333	-0.75	0.0	0.0	-1.0
0.45731067657470703	-0.75	0.06291019916534424	0.0	-1.0	0.0
-0.75	-0.6189520955085754	-0.23870068788528442	-1.0	0.0	0.0
-0.0709388256072998	-0.4946434199810028	0.75	0.0	0.0	1.0
0.560590386390686	0.75	-0.5963800549507141	0.0	1.0	0.0
0.75	0.2798035144805908	-0.3055901527404785	1.0	0.0	0.0
-0.31118854880332947	0.48215341567993164	-0.75	0.0	0.0	-1.0
-0.44503122568130493	-0.75	0.726660966873169	0.0	-1.0	0.0
-0.75	-0.646936297416687	-0.6106118559837341	-1.0	0.0	0.0
0.35882043838500977	0.7093533277511597	0.75	0.0	0.0	1.0
0.2961893081665039	0.75	0.08808672428131104	0.0	1.0	0.0
0.75	-0.035642266273498535	0.2614227533340454	1.0	0.0	0.0
0.49699485301971436	0.684450626373291	-0.75	0.0	0.0	-1.0
-0.7220908403396606	-0.75	-0.5133814215660095	0.0	-1.0	0.0
-0.75	-0.1426718831062317	-0.3925361931324005	-1.0	0.0	0.0
-0.6013489961624146	-0.45963093638420105	0.75	0.0	0.0	1.0
0.24441957473754883	0.75	-0.26605743169784546	0.0	1.0	0.0
0.75	0.7244787216186523	-0.29023870825767517	1.0	0.0	0.0
0.4440445899963379	-0.178236186504364	-0.75	0.0	0.0	-1.0
-0.5464752316474915	-0.75	0.027468502521514893	0.0	-1.0	0.0
-0.75	0.4599817991256714	0.13357222080230713	-1.0	0.0	0.0
-0.6532071232795715	0.2743114233016968	0.75	0.0	0.0	1.0
0.49020516872406006	0.75	0.16465330123901367	0.0	1.0	0.0
0.75	-0.30191570520401	0.4430670738220215	1.0	0.0	0.0
0.09336107969284058	-0.2649741768836975	-0.75	0.0	0.0	-1.0
-0.40753287076950073	-0.75	-0.11460816860198975	0.0	-1.0	0.0
-0.75	0.47849225997924805	-0.27801981568336487	-1.0	0.0	0.0
-0.18611347675323486	0.5713313817977905	0.75	0.0	0.0	1.0
-0.11910200119018555	0.75	-0.21859323978424072	0.0	1.0	0.0
0.75	-0.6995100975036621	-0.13431179523468018	1.0	0.0	0.0
-0.42311614751815796	-0.45484301447868347	-0.75	0.0	0.0	-1.0
-0.09762686491012573	-0.75	0.2982097864151001	0.0	-1.0	0.0
-0.75	0.6482839584350586	0.057748496532440186	-1.0	0.0	0.0
0.6216868162155151	0.4296671152114868	0.75	0.0	0.0	1.0
-0.48637819290161133	0.75	-0.33937355875968933	0.0	1.0	0.0
0.75	-0.6474155187606812	-0.10780954360961914	1.0	0.0	0.0
-0.12849462032318115	0.483844518661499	-0.75	0.0	0.0	-1.0
0.5963199138641357	-0.75	0.32467830181121826	0.0	-1.0	0.0
-0.75	-0.11130684614181519	0.16168737411499023	-1.0	0.0	0.0
-0.5717366337776184	0.655825138092041	0.75	0.0	0.0	1.0
-0.7343008518218994	0.75	-0.676967978477478	0.0	1.0	0.0
0.75	0.590448260307312	-0.044656455516815186	1.0	0.0	0.0
-0.3840332329273224	-0.15504026412963867	-0.75	0.0	0.0	-1.0
0.6318639516830444	-0.75	-0.5128148794174194	0.0	-1.0	0.0
-0.75	-0.28757742047309875	0.10399293899536133	-1.0	0.0	0.0
0.6281177997589111	-0.3674912452697754	0.75	0.0	0.0	1.0
0.6896836757659912	0.75	-0.7068778276443481	0.0	1.0	0.0
0.75	-0.5699372291564941	0.12110459804534912	1.0	0.0	0.0
0.3109842538833618	0.11663222312927246	-0.75	0.0	0.0	-1.0
0.5093216896057129	-0.75	-0.6398369073867798	0.0	-1.0	0.0
-0.75	0.7336103916168213	-0.0714038610458374	-1.0	0.0	0.0
-0.6867379546165466	0.49274492263793945	0.75	0.0	0.0	1.0
0.7278088331222534	0.75	0.643515944480896	0.0	1.0	0.0
0.75	0.5524643659591675	-0.4853322207927704	1.0	0.0	0.0
-0.6365141868591309	0.5556074380874634	-0.75	0.0	0.0	-1.0
-0.15705573558807373	-0.75	0.47878921031951904	0.0	-1.0	0.0
-0.75	0.1047283411026001	0.6334196329116821	-1.0	0.0	0.0
0.5153069496154785	0.4563426971435547	0.75	0.0	0.0	1.0
-0.04143458604812622	0.75	-0.18715578317642212	0.0	1.0	0.0
0.75	-0.10254502296447754	0.3890777826309204	1.0	0.0	0.0
0.41415178775787354	0.4497232437133789	-0.75	0.0	0.0	-1.0
0.35895729064941406	-0.75	-0.3159141540527344	0.0	-1.0	0.0
-0.75	0.18099886178970337	0.6077908277511597	-1.0	0.0	0.0
0.11456382274627686	0.32460784912109375	0.75	0.0	0.0	1.0
-0.3523273766040802	0.75	-0.13151389360427856	0.0	1.0	0.0
0.75	-0.49653589725494385	-0.43684959411621094	1.0	0.0	0.0
0.04704105854034424	-0.30856239795684814	-0.75	0.0	0.0	-1.0
-0.39969196915626526	-0.75	-0.7435266971588135	0.0	-1.0	0.0
-0.75	-0.74992835521698	0.13103973865509033	-1.0	0.0	0.0
0.6187654733657837	-0.14607751369476318	0.75	0.0	0.0	1.0
-0.309568852186203	0.75	-0.2862441837787628	0.0	1.0	0.0
0.75	0.5937821865081787	0.025065302848815918	1.0	0.0	0.0
-0.5256963968276978	0.6210628747940063	-0.75	0.0	0.0	-1.0
0.6144201755523682	-0.75	-0.6235758066177368	0.0	-1.0	0.0
-0.75	0.6353521347045898	0.21697551012039185	-1.0	0.0	0.0
0.0395662784576416	0.6389057636260986	0.75	0.0	0.0	1.0
0.7365999221801758	0.75	0.509919285774231	0.0	1.0	0.0
0.75	-0.022565722465515137	-0.21725916862487793	1.0	0.0	0.0
0.34441304206848145	0.1551169753074646	-0.75	0.0	0.0	-1.0
-0.68951815366745	-0.75	0.11819905042648315	0.0	-1.0	0.0
-0.75	-0.7244915962219238	-0.6951078176498413	-1.0	0.0	0.0
-0.1223711371421814	0.5908181667327881	0.75	0.0	0.0	1.0
0.05340296030044556	0.75	-0.08908206224441528	0.0	1.0	0.0
0.75	0.041758179664611816	-0.1494286060333252	1.0	0.0	0.0
0.31570208072662354	0.4214416742324829	-0.75	0.0	0.0	-1.0
0.37027251720428467	-0.75	0.4509986639022827	0.0	-1.0	0.0
-0.75	0.48870229721069336	0.15622210502624512	-1.0	0.0	0.0
0.28802430629730225	-0.27952203154563904	0.75	0.0	0.0	1.0
0.4257700443267822	0.75	-0.38945209980010986	0.0	1.0	0.0
0.75	0.460992693901062	-0.2968805730342865	1.0	0.0	0.0
0.2923276424407959	0.3901712894439697	-0.75	0.0	0.0	-1.0
-0.2631163001060486	-0.75	-0.5988727807998657	0.0	-1.0	0.0
-0.75	-0.6851690411567688	0.29228758811950684	-1.0	0.0	0.0
-0.03885304927825928	0.09512543678283691	0.75	0.0	0.0	1.0
-0.2720703184604645	0.75	-0.6864697933197021	0.0	1.0	0.0
0.75	-0.6699542999267578	-0.7383593916893005	1.0	0.0	0.0
0.5008382797241211	0.15673518180847168	-0.75	0.0	0.0	-1.0
0.3320794105529785	-0.75	0.3589235544204712	0.0	-1.0	0.0
-0.75	-0.6981936693191528	-0.024264872074127197	-1.0	0.0	0.0
0.5461053848266602	0.6963682174682617	0.75	0.0	0.0	1.0
-0.41966092586517334	0.75	-0.07511848211288452	0.0	1.0	0.0
0.75	0.170934796333313	-0.6686738133430481	1.0	0.0	0.0
-0.5587267875671387	-0.13742876052856445	-0.75	0.0	0.0	-1.0
0.7328391075134277	-0.75	0.15894001722335815	0.0	-1.0	0.0
-0.75	0.059152841567993164	0.5312240123748779	-1.0	0.0	0.0
-0.3997322916984558	-0.5679188966751099	0.75	0.0	0.0	1.0
0.4225243330001831	0.75	-0.5845068693161011	0.0	1.0	0.0
0.75	0.2982468605041504	-0.20396572351455688	1.0	0.0	0.0
0.5049755573272705	-0.731816291809082	-0.75	0.0	0.0	-1.0
-0.43330371379852295	-0.75	0.22426748275756836	0.0	-1.0	0.0
-0.75	0.5985331535339355	0.025144457817077637	-1.0	0.0	0.0
0.6162124872207642	0.503554105758667	0.75	0.0	0.0	1.0
0.5168862342834473	0.75	0.7127090692520142	0.0	1.0	0.0
0.75	0.7278941869735718	-0.688225507736206	1.0	0.0	0.0
0.5073045492172241	0.22974425554275513	-0.75	0.0	0.0	-1.0
0.3063023090362549	-0.75	-0.5713740587234497	0.0	-1.0	0.0
-0.75	-0.47532811760902405	0.590542197227478	-1.0	0.0	0.0
0.13891887664794922	-0.15720152854919434	0.75	0.0	0.0	1.0
-0.0042498111724853516	0.75	0.05133974552154541	0.0	1.0	0.0
0.75	0.1478290557861328	0.7309679985046387	1.0	0.0	0.0
0.047484397888183594	-0.19160252809524536	-0.75	0.0	0.0	-1.0
-0.6798648834228516	-0.75	0.4849095344543457	0.0	-1.0	0.0
-0.75	0.17964768409729004	0.7432615756988525	-1.0	0.0	0.0
-0.2518751621246338	-0.22221648693084717	0.75	0.0	0.0	1.0
-0.4271986484527588	0.75	-0.4774795174598694	0.0	1.0	0.0
0.75	-0.10448241233825684	0.10361427068710327	1.0	0.0	0.0
-0.19391822814941406	-0.39582762122154236	-0.75	0.0	0.0	-1.0
0.6372406482696533	-0.75	-0.4492117166519165	0.0	-1.0	0.0
-0.75	0.6774288415908813	0.4100821018218994	-1.0	0.0	0.0
0.05849027633666992	-0.0573543906211853	0.75	0.0	0.0	1.0
0.7359259128570557	0.75	-0.011652708053588867	0.0	1.0	0.0
0.75	0.3842266798019409	0.7180719375610352	1.0	0.0	0.0
-0.6162681579589844	0.2950770854949951	-0.75	0.0	0.0	-1.0
0.06653225421905518	-0.75	-0.28046733140945435	0.0	-1.0	0.0
-0.75	0.26341915130615234	-0.19197940826416016	-1.0	0.0	0.0
0.4601701498031616	0.6811540126800537	0.75	0.0	0.0	1.0
-0.6823466420173645	0.75	-0.05184435844421387	0.0	1.0	0.0
0.75	-0.48689746856689453	-0.5315478444099426	1.0	0.0	0.0
0.030311942100524902	0.6972615718841553	-0.75	0.0	0.0	-1.0
0.4268900156021118	-0.75	0.6236402988433838	0.0	-1.0	0.0
