0.3431811454112108	0.07350297976533937	0.24117165768825335	-0.7162561390060964	-0.06487970648355756	0.6948149156593342
-0.12624778416812737	0.4253097646353783	0.01741606126827252	-0.05125857980354182	-0.9986302229954553	0.010499319814678977
0.303447748653632	0.723133816549728	-0.1806869759868784	0.057320879702332	0.724544632228773	-0.6868401507327757
0.009694168660276704	-0.48431947474952464	0.16688374705229303	-0.29180076580863495	0.523864143185873	0.8002616275679005
0.004903682542579969	-0.7083864272088788	0.16930773986332853	-0.18575334297314303	-0.5347363811591611	0.8243498639771261
0.26103792158067174	-0.6711417716260752	0.22422617665400998	-0.0143862340388147	-0.48439653915352027	0.8747302607811579
0.1625879085462593	0.5258232821077146	-0.23922030722508136	-0.28950426491595815	-0.11657809830636642	-0.9500509605230352
-0.31434619135700104	0.6044652424618382	-0.10244244748612033	-0.5048686606715692	0.4252611804436677	-0.7511727922917295
-0.571809503748633	-0.34913296560734003	0.01687919306424193	-0.8716305057661577	-0.42802533723439073	0.23886098907778558
-0.1552223478915698	-0.4596181458133838	0.09954129881418372	-0.04657200530654864	0.7602951015568347	0.64790617134768
-0.2070592286991615	-0.4236443535157558	0.03858908365795655	0.1744526705989906	0.9345594576829517	0.31010463681832817
-0.6422963135423976	-0.04271035268494596	0.02494354000890382	-0.866337222823865	-0.006883195626278676	0.49941209233237804
-0.24518212949175103	0.42218823834377295	0.05520475859877497	0.20634373403115946	-0.8876353512473251	0.4117350442239717
0.29923646941019505	0.7797381642317337	-0.09525531424002397	0.17676671215579295	0.9115033968601186	-0.37136920575903504
0.2581191481072343	-0.805297441512397	-0.00803261931259594	0.15493239839569356	-0.9877339350131069	-0.019432589916984523
-0.5474522492981098	-0.3947575608197799	0.02281801712072754	-0.8538418737278117	-0.4491001684185965	0.2631788239873577
-0.10126099992048887	-0.42903538387981	-0.04546949578752239	-0.10691856784108085	0.9454717777954599	-0.30765489959222864
-0.21098733208542225	0.42632986660340627	0.048565016716694366	0.13359308277904514	-0.9418218948522066	0.30842244829225707
0.5286636007289093	-0.5616806211566919	0.24966705132272252	0.27827285087671005	-0.5045702763093614	0.8172961866606518
0.043583934267068275	0.42823694305707716	0.13250773949541275	-0.4240887879935022	-0.674982505740061	0.6037775392005499
-0.368160806066247	-0.5768735755425336	-0.08437745264533955	-0.5090278865533623	-0.4796589509362464	-0.714715259035203
-0.016688937336256128	-0.4956015058185595	0.16482024263724315	-0.28797425060039056	0.5215777314880444	0.8031360414070133
0.36772755420330483	-0.2307198162262844	-0.28187059294768974	-0.504061715463237	0.1153155404336428	-0.85593464302992
0.2496798674539446	0.01997952745481417	0.00013400828911687502	-0.9982116263252556	-0.0562185672729034	-0.020322936866264817
-0.35316914170863506	-0.45323096847934735	-0.10476327295488178	-0.028104019746798353	0.3526775354855173	-0.9353227892219529
-0.38974844257921504	-0.339311852256163	-0.02482336878614326	0.5877752616304823	0.7532089100673101	-0.29529066969756
0.44799513043771033	0.1315601200758315	0.3171285372149882	-0.37254909297760225	-0.04884979991158674	0.9267258873961403
0.11870143130923701	-0.4784716255266158	-0.21046958564648147	-0.3584283185766764	0.3440135914303196	-0.8678616187811913
0.20661734293917688	0.23898623870042882	0.09035256604046807	-0.8349514367348767	-0.466374164906306	0.29214933955480826
0.19148383809960498	-0.7051040338523066	0.20050590794270715	-0.048989011446845546	-0.5603883527927567	0.8267798805073101
-0.57575466269498	0.21430296882619848	0.057664832558260486	-0.22489338093334077	0.013635198907405818	0.9742879700392113
0.3861367443759095	0.23647998889813482	0.29302023423447576	-0.49007007235148603	-0.10428972162979333	0.8654218498211086
0.241070844928843	-0.7652141282190386	0.1383448993982546	0.08610775487009485	-0.8483943049837968	0.5223146157463843
-0.07613638543240411	0.6219949361445105	0.17981269147275358	-0.2372727242274047	0.1205411616348333	0.9639354141691402
-0.294728244619744	0.6788290020907177	-0.0077107238362045544	-0.576025609383234	0.8164597123689548	-0.03985016202072397
-0.5914860729365417	-0.258253086157216	-0.04299330195753042	-0.6832107740656873	-0.15963568484678062	-0.7125584090613646
-0.300209702338545	0.5383780022168907	0.12588036349442344	-0.24725070643355418	0.038838987536442326	0.968172826108672
-0.12796456242736617	0.5908970922898131	0.16818922232913985	-0.27553487297044804	0.024894749541945073	0.9609686702605882
0.4860757014739772	0.39207818414011114	-0.31580377668344894	-0.048414764916548156	0.1495681412533034	-0.9875653809546523
0.3833901764037284	-0.07994604575963485	0.27727926442908746	-0.5981801280441511	0.05641414491870761	0.7993734913456754
-0.25628619529376917	0.5092925184118223	0.1291668815836692	-0.15321410051108258	-0.24628587181529724	0.9570102970965142
0.5753899174673938	-0.599227929430821	0.19774796199429379	0.41273773116950463	-0.6318761315255816	0.6560336269409639
0.5855583723593811	0.675932328587375	0.048199346828790575	0.5467219362034428	0.8196955635590267	0.17086341783894837
0.07894014763434157	-0.5479545414524057	-0.21647415395123346	-0.2771524181917868	0.16060908758883888	-0.9473073725430018
0.20328984446102863	-0.2374839726264689	-0.0770722383964376	-0.8501561173694148	0.4728637663736	-0.2315910934175492
-0.1992627493648622	-0.5028539574456303	-0.13212324546510498	-0.09525435994261186	0.43839483824060105	-0.8937206346034092
0.16504564812236838	0.4968426100353277	-0.2351696720298642	-0.3376928536844558	-0.1921323208354285	-0.921438390702732
0.20444641564912752	0.2232900584448291	0.04919770853586163	-0.8722658054351662	-0.4523803545649011	0.18575354497902818
0.32252624691275417	-0.28864811843372645	-0.263166765474897	-0.5540539567553792	0.1948140810722568	-0.809364989865315
-0.3957866762384934	0.33188248285770733	-0.01632764070833483	0.6410737939446673	-0.7490367215971224	-0.16723749704065924
-0.5884276813547329	0.3057466408476111	0.022156121229834725	-0.8817935022385313	0.34014393645329843	0.3267144347958307
-0.5345675416434783	0.377704699621391	-0.05505137366764866	-0.6576695258141786	0.28147217400068825	-0.6987447388558148
0.3239151116290292	0.25683434698139695	-0.256910258187091	-0.5875979054752283	-0.18373254244729548	-0.7880171662641479
0.11865664136158091	0.5208476519930382	0.22384571240502074	-0.3056259946805098	-0.20138873677327096	0.9306101912596995
-0.07363325915888225	-0.46793388156343124	-0.12354431589267605	-0.19599715300654286	0.6860777961166165	-0.7006299834356915
0.345884282578287	0.39916879385605747	-0.28945190223126366	-0.32257783018782943	-0.04487694499733635	-0.9454785049270119
-0.5986853243841292	0.08848797900117365	0.051350529647388544	-0.04085439840305018	-0.051466307443655615	0.9978387331273727
-0.46711209581586993	0.3218768546154345	0.06912925474712024	0.3431171290926246	-0.3985488947175531	0.85054653855192
-0.018406801523597607	0.5418951804991777	0.1861427097630787	-0.28533257047871075	-0.27620976369461797	0.9177654878365034
-0.25050777832214594	0.45742473274287143	0.10106099978779585	0.022259158276684038	-0.6731727703214498	0.7391501546847965
0.53102785581565	-0.3416173974914726	0.3246334734927259	0.0020047934297833594	-0.15097541149859994	0.98853548541574
0.29548619185010466	0.3356509408437368	0.25713315386582686	-0.49385102332455133	-0.19481096577404772	0.8474431275168122
-0.3465923491547691	0.3738119196847433	-0.038271067484180264	0.44150570542044826	-0.8128852636682625	-0.3798555780716816
0.5169297282966279	-0.03794223016354974	0.3399218869514588	-0.25164024062719	-0.0019581102255414456	0.9678188648199801
0.2781312786125392	0.03784177030297297	-0.13995304482182372	-0.9092826632656913	-0.04029803897773335	-0.41422349805268255
0.2793660224231289	0.797339149767399	-0.04839008133176151	0.1735186689973432	0.968624523125211	-0.17792640250914973
0.4455605042616077	-0.4234438055782042	-0.3083811469783521	-0.1305297621200456	-0.11155391279263337	-0.9851485703900391
0.19820873870982036	-0.29849204193074386	-0.147175861507116	-0.7097615979855568	0.45805995299333324	-0.5351817948031622
-0.5356136592561237	0.4224663379529381	0.0029631353129350654	-0.8692992645690656	0.4639253837122147	0.1705638501182341
-0.5996554692859613	0.21953743765035827	0.04482796427957044	-0.6178420704851492	0.1404467709455941	0.7736574697303576
0.5713050192682972	0.4059031500277133	-0.30610402170911094	0.2063091830828738	0.29985140347540223	-0.9314105737050173
-0.321142942407406	0.6550621022217418	-0.03414212612919353	-0.5661249044758656	0.7804583341650047	-0.26530620265002786
0.14606445890441908	-0.3009269065969483	0.0009376550271065284	-0.7455687047340018	0.6661371737509064	-0.01971223651485729
-0.6393676018132747	-0.037534375911763174	0.02980195773508138	-0.7528621110139468	-0.042569922421140494	0.6568001549213296
0.23323889925874078	-0.19717749299474832	0.11028644220429146	-0.8666835388727403	0.3594960657918352	0.34586445629352525
-0.023259565530934306	-0.6508526162462108	-0.18776960565411466	-0.23607249951125547	-0.2390464059251775	-0.9418739781885705
0.4132588871296793	0.26775113198027545	0.3076168105961464	-0.38010080305261856	-0.06862156829046999	0.9223960428601756
0.2973334123795421	0.13280557843239266	-0.19562878694838956	-0.8076045158371916	-0.18449097383839136	-0.5601232244529211
0.15665971288022276	0.42566649980797455	-0.20486135091365643	-0.48197898668907724	-0.40748378533903723	-0.775663084770663
-0.5992999856216799	-0.20427930500605515	-0.047612636938060074	-0.5322692570866696	-0.08368759301994425	-0.8424285279683577
-0.09771389331749994	0.45006698163282444	0.09400597008387974	-0.12585385959601675	-0.8576242741838694	0.49863955955717887
0.24437377880638517	0.10881945573565799	-0.055106326135370705	-0.9595418661676304	-0.22184314839066205	-0.17339268895677565
-0.4947951565314267	-0.47587676841625387	0.031003035442156626	-0.7926811305980777	-0.5417499180132632	0.27957763059010304
-0.45075774489226006	-0.28751826358211163	-0.03371650135535239	0.6586177694900128	0.593053378693063	-0.4631525922768257
-0.08887614083031678	0.46941059594022716	-0.12112730667016677	-0.17380918468874512	-0.7106463723034646	-0.681741960605154
0.5187745249443095	-0.7094481552873221	0.07400400467559816	0.4753968152513054	-0.8438803418801517	0.24872441906084658
-0.50069834367434	-0.4653526660941846	0.03377644741713791	-0.8007361666355978	-0.4778613075393775	0.36120653676045716
-0.3154411037145196	0.6520838431286456	-0.05167190244194708	-0.5597002174029145	0.7220006745412799	-0.40675630616017033
-0.5667598586792899	-0.05822377021624778	0.040787790257768616	0.5996736540345662	0.08229378122261019	0.7960020365733473
-0.28808363622927563	0.6424004375941754	-0.0916077685617855	-0.47355037087840873	0.5933437303321121	-0.6509172481325844
-0.5769088241868117	0.11078409633894898	0.0511749488214805	0.2108977022514715	-0.061377822615081915	0.9755792751366145
-0.058165925601516726	-0.4190511888689904	-0.029521059598621613	-0.1735052088160588	0.9779718657218194	-0.11604728506207726
-0.240536332450969	-0.45433398923556534	0.09731179605989154	0.14844285910498153	0.6867723413954093	0.7115535599482353
-0.5262922907644416	-0.1414122514930848	0.0032828105615366693	0.9420208323034897	0.3268264844772003	0.07603420645022112
0.6109493490333614	-0.4043133266748914	0.2968088179077603	0.2709523916247626	-0.3354429889961873	0.902254289325424
-0.16789214437673963	0.7001061928135324	0.11332386089428681	-0.3575670910690428	0.6355635777323027	0.6842548604464116
0.028045826286279236	0.3914221548640503	0.03627497799178662	-0.42928763956176746	-0.8877229184551652	0.16631338661975248
0.24018393557064746	-0.2629405594679221	-0.1767092313676433	-0.7477767134084142	0.35095079659758677	-0.5636164699967786
-0.45552555340297857	-0.31022567265620327	0.05823008822321036	0.43954888070505027	0.46668388777914216	0.7674652632909723
-0.42530965848332997	0.3046953599873234	-0.013926576134681266	0.6699658820830233	-0.7093826329714881	-0.2189109336765862
-0.12428824647286274	0.619296257550843	0.16752194430706938	-0.26309777425618147	0.1281478006548443	0.956220530196235
0.22112137696235884	0.20402814847032708	-0.08228207491661906	-0.8876074824350113	-0.37460367453077115	-0.2680019480403577
-0.1964149948562993	0.6451599516088643	0.13747365799195913	-0.3729999343896661	0.38981811059286864	0.8419696488586217
-0.4962559636749594	0.3289343416644184	-0.07482863574677355	0.05347078773999813	-0.18566238276798752	-0.9811576603601371
-0.32242966842198084	-0.38564990756162065	-0.0360612716477538	0.41142117525901317	0.8471115700325171	-0.33635487875982595
-0.4478227725708438	-0.5358651839154698	0.03322002380219482	-0.6866760948802783	-0.6698228899233292	0.28251236584392336
-0.32396249268080163	-0.5083144331931572	-0.11934975385158385	-0.2375235534261531	0.03688651175680023	-0.9706811767095458
-0.12109875771440742	0.4479298578924989	-0.08590990950448348	-0.0822719886303957	-0.861490209686802	-0.5010648046915588
0.235910196993321	-0.2144813231433866	0.13288789064609197	-0.8239130750055589	0.3912508572837972	0.4099878187331644
-0.16277796865398667	-0.459339893466126	-0.09886552084276534	-0.06234814706304631	0.7481164638998077	-0.6606318679868934
-0.6364569766172284	-0.12030730360484344	-0.02213315280973867	-0.9145314322905757	-0.07671519678203599	-0.39717381325465234
0.16660549140327358	-0.4379040527973807	0.21655374016905704	-0.46189148497994725	0.3647049228681414	0.8084841218841352
0.05980480780088923	-0.37489877250415016	0.03809456708825831	-0.5089926708219353	0.8469269635104064	0.15375688449170222
0.19616360207271866	-0.8016078834565685	-0.0692154855273269	0.0381069482352647	-0.9631004161061771	-0.2664309460109753
0.10731168932399744	-0.6460495924267	-0.21776481310095114	-0.1860616836047017	-0.2869803619473024	-0.939693206185284
-0.10538241027112413	0.4372915961420354	0.06797905349959818	-0.07974006516957927	-0.923892870694003	0.37425056511319466
-0.597036371798548	0.2720226496524932	0.029777024614341407	-0.8392718546416519	0.2647067905869595	0.47492427714690866
0.014126826713016323	-0.47377598125845855	0.1610243869919834	-0.32891428490367486	0.60731792364519	0.7231737915643789
-0.21669761345630614	0.43889898699822627	-0.07504951272178093	0.120432370105234	-0.8307286812446231	-0.5434941603995438
0.3300802632870484	0.7857826952570498	-0.05439502935364459	0.2221999812887711	0.960802362533565	-0.16578898776815743
-0.6494541429081261	0.026337820223152276	-0.0036792862518394867	-0.9957645867955801	0.007613652219551438	-0.09162379594683184
-0.25224970913956407	0.4073269999184109	0.005695397125210024	0.2903455564219064	-0.9562948782216417	0.03463471889751331
-0.5466316185935298	0.2419367637366215	0.06279504257911032	0.009359749708741243	-0.11939031482900184	0.9928032774978238
-0.08530873385341317	0.7618219783083753	0.07649518090671395	-0.2939581156565002	0.854714421083201	0.4278456317786694
-0.5789008399961718	0.0197608760098049	-0.04558156346398283	0.41016753762372327	-0.033185870666114115	-0.9114062151795006
-0.23065564329078544	-0.49899465255156433	0.127509028226887	-0.07342591839929656	0.43157674252010747	0.8990829493561503
-0.4925120715390456	0.4543448012718613	0.056076190271048335	-0.6524098753513655	0.4248365781943946	0.6275948026968453
0.19450505409345217	-0.35684998532453904	0.19077202421259415	-0.5808539507421887	0.439577475063907	0.6851133711464339
0.15396677235839767	0.67707781635215	-0.21332174060565195	-0.13549053001431144	0.4111354779256915	-0.9014487978067605
-0.18716009356731145	-0.4229193572025962	0.022192350149901584	0.1277445561763096	0.9716456885211829	0.19896226864788655
-0.25813588376601004	0.46517551795961304	-0.10751739717562032	0.033655755599615075	-0.5630501161979814	-0.825737159612221
-0.016215481505085647	0.5133565845269207	-0.175115283101319	-0.26013905475329724	-0.4248052169492491	-0.8671033386193152
0.18232424217696377	-0.5482561838049838	-0.24633385462774907	-0.23204489510780263	0.00535826205800248	-0.9726903184889457
0.3270006214564142	-0.17137493266848947	-0.23983513746414967	-0.675951101835207	0.18251090217967794	-0.7139887103542534
-0.3601038623046111	0.39344387446309054	0.07284162162747641	0.2767358833742375	-0.600867698007477	0.7499168356186415
-0.500970214775891	0.4594001198460709	-0.04056274647571024	-0.7308075834741573	0.49050930615471516	-0.47467978312993603
0.28344043274927494	0.3556166159665273	-0.2550323546626209	-0.4866397152395327	-0.2429345417323778	-0.8391451578748857
-0.03143032626937755	-0.7733230223904093	0.08566172341813338	-0.20686808515097171	-0.8829069660313864	0.4215221046151942
0.012588186521934018	-0.405293753662221	-0.0636388154084328	-0.35588698163401195	0.8846396279776212	-0.30125933166467644
0.5205850492352766	-0.15815521756436482	0.3389406759273746	-0.18706218164370675	-0.05458985954674952	0.9808301012068109
0.12051872421148188	0.3327049038318518	-0.04960100762525538	-0.6543617396292556	-0.7387058232884149	-0.1616305056267508
-0.5919614615961459	-0.11359909937500819	-0.05261549249650633	-0.06416618073754755	0.04346475187108229	-0.9969922349719391
0.31506210996245654	0.13366543533016548	0.2187790511138648	-0.75494630272198	-0.14041298616282097	0.6405780774607049
-0.42505266914112727	-0.5677164872555759	-0.014005576984305636	-0.7646165774835293	-0.62111919816762	-0.17196636620277592
0.6388366379598562	-0.04883257326193955	0.3471861948623449	0.03417519413744046	-0.024757294771378835	0.9991091694410938
0.015323398235536292	-0.5540738108326875	0.19896259368539482	-0.27521447698411045	0.20967780587427212	0.9382388871615335
0.1410635451763418	0.34453949294216857	0.11881194436447041	-0.6163133686339252	-0.6559058542433716	0.4358271928326361
-0.5065109310325107	0.2944997242792477	-0.06889858369075313	0.12224978596543806	-0.21332430170253738	-0.969302704078829
-0.34758928253463217	-0.3744213024125177	0.04065754987756488	0.45591384778206234	0.8008692220737047	0.38826672859725364
0.4265029041693079	-0.7465026395242351	0.08849531909515597	0.32444391732700256	-0.8916839551015039	0.3156514988465105
-0.522398779238691	-0.25799030553426866	0.06316258823324543	0.21656126728023797	0.23575111114766464	0.9473767102407673
0.5434046673156364	-0.32436811021789475	-0.3271532723680263	0.021823115689522027	-0.16257760480849623	-0.986454395315026
-0.5606743681335169	0.3389811812598422	0.04568114354973981	-0.6715816617377143	0.30380425054380156	0.6757818057399372
-0.6251975290251082	-0.1987013080608149	0.010803972955972296	-0.9817641978354359	-0.11352791656765945	0.15248105458826205
-0.09829766292260941	-0.631778625949573	-0.17250125486343673	-0.26036054220483135	-0.17420357843526546	-0.9496659946123974
-0.5643169809760608	-0.019682054212723718	0.03549951342450092	0.6720623556694421	0.09036104579808943	0.7349605917968093
-0.5027987602588332	-0.19664822744790483	-0.004788898465328087	0.8902087581276144	0.45517386899782497	-0.018577296209161903
-0.14415189138701043	0.7067342233497149	0.11915211349391863	-0.3357096815256108	0.6229511280345442	0.7065627373492476
-0.0007815122341189618	-0.49434136029680653	0.16953342968776028	-0.25884390790782635	0.501277167037874	0.8256639953064977
0.2609841049701065	0.21002911115076975	-0.17370754596830199	-0.805157390988848	-0.25744115223834046	-0.5342711192552216
-0.19702099879811227	-0.42402862811487135	-0.034257837524209016	0.11639461302242975	0.9562059199420809	-0.2685563864946758
-0.535061991759795	-0.21495256167753304	0.05613978133594843	0.29948891895638013	0.1817156705395454	0.9366353626159443
0.5248009966442708	0.7129271491879523	0.045877969986342526	0.44368703472605064	0.8813903499644514	0.16215075148005023
0.26341680410952584	0.26893413079447265	-0.2074278241642503	-0.6714493196341718	-0.32261478792463205	-0.6671397977749131
0.024195600103859002	0.43095962543049793	-0.12283466436465489	-0.36869181342778673	-0.761859939520555	-0.5325746701309272
-0.052511334470657464	-0.5605287280932618	-0.18228847799921744	-0.26200787910156564	0.24283332634271876	-0.934014907218311
-0.2565912772883891	-0.6967267859393357	-0.04065795272202657	-0.5024205467481214	-0.812543165434992	-0.29554559463846225
-0.5303541214327062	0.1301281072723497	0.006628907526456434	0.9529342069558655	-0.2835515825502778	0.10730748923829601
0.5286299631623566	-0.6488348622005077	-0.17533821595227794	0.38814808947003065	-0.6932781822113309	-0.6072120080420993
0.5486906553781035	0.34248077546255007	-0.3238824869998374	0.05884099257563566	0.19448318596931286	-0.9791394323424727
-0.2296308492075339	-0.6977767745457885	-0.07299506509269794	-0.4592039448552345	-0.7748521530635016	-0.43443742693539517
0.07122991879404883	0.805033462124467	-0.046093942486088134	-0.12153034863357651	0.9588254625690913	-0.25667899542067923
0.265288162233114	-0.08605992470411579	0.11967975174518661	-0.9199134424519284	0.11820656723250786	0.37388028279029306
0.2956917530792297	-0.2515325344190591	0.23215907943296815	-0.65108281644387	0.23289382739355977	0.7223929895102085
-0.5354104484768119	0.17733548318652706	-0.04498476112510303	0.561373454599316	-0.30274712323446945	-0.7701973927795934
-0.546135076395233	0.2715519710444666	-0.06493358857714274	-0.2392213098691107	-0.03723204887825028	-0.9702509672455033
0.26457905061021814	0.5015248627281883	0.26797011537630133	-0.2582400606064407	0.010006609492959354	0.9660289534296772
0.06481645949531259	-0.4849531569479112	-0.18995098134392316	-0.35861446914350165	0.44942561761125055	-0.8181761893111223
0.23803071172838997	0.4304116976802459	-0.25021938214071215	-0.43189497297397317	-0.18703201529398022	-0.8823183992045529
-0.5221225450997339	-0.2940181652246192	0.06929391942400046	-0.13023656059091415	0.0797932884295201	0.988266901908109
-0.336162556956891	0.5063564677416951	-0.11677658518036194	-0.22542762465111071	-0.021024140472008707	-0.9740330443889321
0.25209055956117615	0.006914017047625495	0.03854227747322467	-0.9927601083606602	0.02620465119555297	0.11722066158937271
-0.04101213970097218	0.5357114575321369	0.17781226019821014	-0.2558953894490175	-0.3126802930405507	0.9147396263433721
0.3966329014291913	0.4130985347569703	-0.3026576212360083	-0.1619671113966059	0.07994829358081794	-0.9835521974859058
-0.2947168874188213	-0.43128809535486157	0.0853437658098105	0.16095591705633844	0.6587994673099389	0.7348989417849876
0.14512044148226505	0.30228758323863736	0.01115966857374133	-0.701858611799365	-0.7119216918297172	0.02370640726430915
0.21284465265544597	0.4656172806532145	-0.24714882279301909	-0.3776471266162157	-0.16829056467749917	-0.9105278324131797
0.2517828924055325	0.10915051049830524	-0.08938932341326476	-0.9471264662462522	-0.1546807447524311	-0.28111443246251056
-0.32988861322951335	-0.5064750453212126	0.11804984652586573	-0.18472241502605286	0.1343587865533601	0.9735632212973393
-0.030698383793466035	0.6718761567060525	0.17899961571750422	-0.24606206383979673	0.3842484620070662	0.8898351421381967
0.20371620357959735	-0.2887569890665098	-0.14576158956181734	-0.7272170917387721	0.4631787422790381	-0.506577490798605
-0.38107612287017506	-0.6106348023252722	0.01385250888912132	-0.630766201079983	-0.7622882341253718	0.14508841335251177
0.2627757780802127	0.07073807890681406	-0.1068583202922608	-0.9468028543187783	-0.11041727475219135	-0.3022786470958746
0.25204810447397674	0.3258961663723173	0.22311576301655653	-0.5651284739679464	-0.31870102061250705	0.7609595701291936
0.6309934982537568	0.39782584894290407	-0.29250287598215147	0.26239013292145197	0.30993174471471807	-0.913834630424758
0.4098364338659347	-0.5135216204960583	0.2879776213498189	-0.018656695062102935	-0.26013034408861413	0.9653932524177378
0.6277668788141411	-0.39673806566265574	0.2940346705602931	0.27813290657234585	-0.3086956386806303	0.9095873179311468
0.3704840286765383	-0.1383470536267819	-0.27225673098067765	-0.5981210467737792	0.08179665955313467	-0.7972204964074793
-0.39544724963723	0.5099277256189751	0.09812829007520227	-0.41272677663995955	0.2434933679729051	0.8777058662203421
-0.15271012331729147	0.4514659836835309	0.08863320558608676	-0.03581081362075794	-0.8205008465519756	0.5705225205329852
-0.07330750493113374	0.6591187094535492	-0.17219326335449775	-0.2638118363017226	0.305380247982456	-0.9149569493529662
-0.5496399861766496	-0.2965380095669478	-0.06340748872200673	-0.37485748608896674	-0.07161489035572229	-0.9243122700702389
-0.10774596324184736	-0.4366256212338	-0.06582911824030004	-0.13480649638927134	0.9148989640397595	-0.38050899349453493
-0.5555814200087936	0.005895891329377311	0.023035027596083456	0.9245658912119207	-0.04387269206730679	0.3784879122221393
0.15959041060495327	0.2958736510685057	0.06283674460229048	-0.7425505662306083	-0.645565668422618	0.17850384966341848
0.33086786843545024	0.09396352177861224	-0.23016869293139397	-0.744447596558151	-0.10140795799634547	-0.6599349983398399
0.5378181666586604	0.2126710623904408	-0.3387984284733706	-0.08701916928856866	0.06757723235981873	-0.9939119587986225
0.2706096883855261	0.46805055402282814	0.2686000128546039	-0.31292718417960097	-0.07472834239073757	0.946832747767502
0.32205368237823717	0.6916184961394558	0.20686367431329097	0.08108356171147431	0.6057651780917946	0.7915011086736375
-0.5794121871356737	0.3215174233813181	0.028551196372052293	-0.8757109245940383	0.34535629398233003	0.33743059546141513
0.056751670540586954	-0.5120621564827446	0.19922564113622465	-0.33313784107155453	0.35367742937924496	0.8740317241346987
-0.4598241049554111	0.43747263917226115	-0.08448411620204521	-0.35944861615166956	0.09181001988230982	-0.928637503332629
-0.06010242082526389	-0.43684947475616887	0.08335384261984663	-0.18874538826234838	0.8936806079371045	0.40707511518989137
0.446495749222919	-0.06769485936018303	-0.31510859753351594	-0.42668858412946076	0.009476675260462836	-0.9043489618502388
-0.5248417923718398	-0.4398614058379914	-0.0064651909493875035	-0.8458214355329323	-0.5276396310804001	-0.07862899532837034
-0.546088656762076	-0.16728026120978257	0.04866118505127548	0.427576029521554	0.24944392966208248	0.8688823078722001
-0.5759367147217134	-0.3419569211029849	-0.013091771622722728	-0.8888505196136508	-0.40852450034465737	-0.20749093088781337
0.037676044749903465	-0.4315506139216808	-0.13252816052650973	-0.39108371319316965	0.7217650580276022	-0.5710593054013348
-0.48739747644884734	0.4915455469102171	-0.020080855765037504	-0.7729185896645597	0.6061386117515444	-0.1875975402153719
-0.1842022056616299	-0.42366915575318836	0.024582523271312832	0.12900366255918833	0.9714006317279812	0.1993461003501058
0.5751312147232635	0.6738375480873733	-0.08180137121267887	0.5055466213349791	0.8147946185143817	-0.283782211029498
0.2607976184596778	0.6006172037213918	-0.25389785514330704	-0.08583067991226204	0.28310122707487007	-0.9552417440703175
0.16650673492563284	-0.28038687044761634	0.038482312238100905	-0.8052711174525343	0.5787164884218772	0.1289405034323896
-0.5018386308050119	-0.3637281643509202	-0.07601231336171609	-0.2704348322673263	0.05849569889122934	-0.9609595489445796
-0.6034590198980976	-0.2739216745688593	0.009357909158818034	-0.9333497399447088	-0.33078622537336266	0.13942286773835755
-0.4763502642835487	0.37277740024504735	0.08172681970063143	-0.05570913269055954	-0.1438193775155047	0.9880346548506882
0.23243151268440473	0.26588579069592955	-0.16823758059599486	-0.7486850741545361	-0.40179411190747544	-0.5272875414559884
-0.4850343535571107	-0.28540399163673125	-0.06012930985181855	0.36870970881348436	0.44688033195614996	-0.8150773702768571
0.47987855639668725	0.41230777793592477	0.3120669755941879	-0.047112172881308235	0.17526445436403845	0.9833935195042101
-0.23232798807956911	0.579782733049103	0.14209188440304915	-0.24955660717858352	0.07570288998744515	0.9653965880720021
-0.5824973966096724	-0.07351044688277396	-0.04953254830578991	0.1791860455477967	0.04513183452511395	-0.9827794658993141
-0.26080645404910013	0.4336449797894968	-0.07888559518908396	0.15311258885056903	-0.7410929751335161	-0.6537107443994097
0.11441979134943153	-0.36813243745957824	0.11739649951821537	-0.5732376106637599	0.7188315180268837	0.3932936440011086
0.40352490786315237	-0.7603748379559847	-0.0710361838411061	0.4029425098112663	-0.8661998388777383	-0.2955252492007686
0.051919931878119246	0.42394613410025084	0.1331779370352343	-0.43654204628324356	-0.7088233597929103	0.5540762460516856
-0.05895371177938667	0.7099578154653114	0.15018260838729558	-0.21961229625377024	0.5862595178986312	0.7797885719907738
0.1385375313367915	0.5226246242978255	-0.2309363128993589	-0.3096379307699245	-0.2043958109695343	-0.9286262457450929
0.17219541081673953	-0.6584753504908802	-0.2238767879052013	-0.10478944573795579	-0.3745220610156488	-0.9212775900207948
-0.5190916589622714	0.44880179146818167	0.007478178738160193	-0.8294242866496606	0.5567302025199363	0.04590026489915616
0.4182467549937322	-0.14259549141221164	0.30322815170897327	-0.47474418275560326	0.04866034030783274	0.8787776352529917
0.03166778736326051	-0.38733057060074516	0.01893115949229103	-0.44216434385497855	0.8942627324813901	0.06917267031287311
0.5291561103244524	0.04877868084935841	-0.3425654551772771	-0.21260229298472133	0.01035005678694867	-0.9770839991229748
-0.3246331598842815	0.4017271016026324	0.06484253438602418	0.29951148550701845	-0.7612433130032926	0.575153447748642
0.130851133954974	0.6469824346253374	0.22173951079162765	-0.18203958765963552	0.23884689654445723	0.9538415741284243
0.48914972588444894	-0.7321885976348534	-0.03956519862301976	0.41820712277107996	-0.8973122036388236	-0.14118644291989782
-0.5997586123706491	-0.23027268530065842	-0.04236028637825449	-0.64423146599902	-0.14244287195005498	-0.751449164246906
-0.4575608566929478	0.30790176026232174	-0.05794076085131198	0.43649008878196516	-0.4898574205985127	-0.7546629114244874
-0.4855708938059847	-0.3652529817928773	-0.07976537364578258	-0.1683456697362719	0.12440820296498753	-0.9778457621302394
-0.5607805340583403	0.3740336418957907	-0.01302706862221588	-0.8657065584815306	0.46729082921242227	-0.17941971891637112
-0.3681300589973245	0.4037215306015479	0.08312940758689463	0.2391303826040946	-0.5590965936366257	0.7938687921184088
-0.15556338108757356	-0.7184939249576796	-0.10023777530645381	-0.35744251688259354	-0.6981227920772254	-0.6203703847758493
-0.04716727421402872	0.7777182490659614	0.06600377912460284	-0.24722207740119287	0.9127729221170392	0.325156634709121
-0.4224556719890865	-0.4726412318380909	-0.09411048198829454	-0.3557588072976839	-0.1507705542774382	-0.9223361160623622
0.16214395269568843	0.42658429102433715	-0.20862855490262802	-0.48356735100099946	-0.39504845407489786	-0.7810885583459205
-0.25484164198167325	-0.44450663909128535	-0.08969942022819033	0.14233107696434327	0.7068015926655449	-0.6929454330144758
-0.036536960604431554	-0.5517364024966613	0.18417228143670286	-0.2478521409335396	0.2467342461311442	0.9368519242765941
0.2440229829665978	0.09488419613233501	-0.03318525263747229	-0.9812402572798333	-0.16529819710016727	-0.09921725418917672
-0.035236589584232626	0.7518483484448149	-0.11803037219462555	-0.23735144950045323	0.7924899322794392	-0.5618042333907459
-0.4802888919340295	-0.37815759762353246	0.08136609853208585	-0.15428893638311947	0.02905388595515733	0.9875984993005361
0.39439305749159026	-0.200338346647084	0.2941572091498992	-0.4978278041452662	0.09040618386381963	0.8625509836172489
-0.5366635904323812	0.11044889236880427	-0.010206425917503969	0.9126993617041536	-0.23561746605419762	-0.33386267361750754
0.21494537370042294	0.7404642037645586	-0.1709491790295432	0.0071147655224709505	0.6984287518201386	-0.7156442263740571
-0.3071596121311076	0.6687445732005025	0.020112863706652585	-0.5542128791652071	0.8179091986749273	0.15450769330473535
0.18963131415469192	-0.5206691570970319	-0.24711061402403203	-0.30594296266204	0.09107519585451317	-0.9476836034762004
-0.1829702839343283	0.7075687138584801	0.09627580354179197	-0.3960444873836367	0.7180989978578645	0.5722609485964971
0.6110353888151204	0.15964730054167517	-0.34368344674967444	0.058150174623374754	0.07970642106436408	-0.9951208186106753
0.07352859557381797	0.37645716227941534	-0.07407327413514729	-0.5360664118893306	-0.7969141627175609	-0.2784970723441595
-0.6008636768033953	0.0881458287450928	-0.051070097092556554	-0.17149932994693742	0.020900412696033543	-0.9849625132850927
0.08153007743084453	0.5243245031526652	-0.21198417332434005	-0.30270527546049725	-0.2750047461336481	-0.9125469334847126
0.23009627856732212	0.8033992922056132	-0.05168317101985225	0.0930289180944443	0.9818918262700089	-0.16502745802539376
-0.6010352295662934	0.1586450892194376	0.05053678719231275	-0.44639293981339045	0.047511816949305424	0.8935748264890494
-0.3602244900686457	-0.489798383958994	-0.11084050690823795	-0.1836575230465511	0.02673577335187184	-0.98262663949828
-0.5878277188241294	-0.08667392816928433	0.05127558202818086	0.033096614450556144	0.024166739521790773	0.9991599385547831
0.24015270701748245	-0.5602467362658449	0.25892164269009765	-0.2120508960548896	-0.09440621253398812	0.9726879687326788
0.0172037143690167	0.42202686910742826	0.10455319351966333	-0.42801142996100494	-0.7656544940613768	0.4801868506595667
-0.6051562235033169	-0.13240074587240402	-0.04979477021229471	-0.4072329565382577	-0.03692111947669899	-0.912577750137322
-0.5400538125023977	-0.1356286762929309	0.03328717003196472	0.7118030344276135	0.2602308831201864	0.6523927709977557
-0.18514459666149036	-0.7408334763914319	0.0020817347482435787	-0.41340244564810225	-0.9096857278084656	0.03962694227101332
-0.2309268697964243	-0.4285351018169726	-0.06152326098181907	0.13858970685810817	0.8910090806886676	-0.4323143662698706
-0.012287746623846432	0.7802691060557894	0.08080203663095352	-0.2061253811270174	0.9100981376561129	0.3594908998710774
0.24068538642687481	-0.1048885953299784	0.006203609238119128	-0.9828129416583983	0.18386103975756501	0.016548104665865968
-0.573654761612437	-0.19470872162702418	0.057668171491994935	-0.13654904963050357	0.008109727746588337	0.9906001157686601
-0.5612644577232553	-0.1608102830791345	-0.05341297946159209	0.2605130684780333	0.14733024102440387	-0.954162848381685
-0.6331103655331135	-0.15100364512016906	-0.01839401130665837	-0.9166409129365932	-0.18334244277501535	-0.35518303085600533
-0.3586979782354968	-0.4825158632696076	-0.11050306540875533	-0.22294436964524508	0.09580860177316705	-0.9701116017602075
-0.40087783664829363	-0.4284839586378908	0.09661996596392307	-0.05926236980239489	0.20876846440909838	0.9761678645569477
-0.2915932248749508	0.39861894201592823	-0.03403774306782083	0.3642836717185652	-0.8711702254730036	-0.32918056559972786
0.17607941425152346	-0.38924996607168794	0.19672069274747944	-0.538801830992493	0.4558716007621515	0.7084304274504948
-0.2164877864661339	-0.6562624360586373	-0.12297136500718713	-0.37725641701118756	-0.5131535359820385	-0.7709416607844016
-0.1791367003174804	-0.5043880488051508	-0.1350838060059872	-0.0710273761120519	0.44534487183690796	-0.8925374260899113
-0.08577435249802687	0.5284338886523106	0.16366033336840421	-0.2216755386319883	-0.4590802895940083	0.860293695942554
0.3534046905242021	-0.5656270958053734	0.27134304853246194	-0.04709211509054377	-0.2724978712204439	0.9610032481093007
-0.4031020159524805	-0.3746354599600068	0.0751907710696289	0.2710673131765202	0.5000923952805039	0.8224537117126229
0.24902618505838192	0.11479165744062786	0.0831104232748522	-0.950649677852251	-0.18148409353177639	0.2516519695817239
0.2537529698147292	0.11376833936676445	0.09928278225921594	-0.9417832231046334	-0.17425001706748172	0.2875435484072465
-0.53643024201773	0.421148676302759	0.0016719800859676278	-0.8283489774461075	0.5596104179743372	-0.025964430642249764
-0.2928634936278003	0.40602360022068207	0.05219702760459675	0.3142812062204571	-0.8401842041624455	0.44194776443889067
0.155844109116075	-0.3551733605941316	-0.15078972931707466	-0.6040240421960783	0.5717639966783739	-0.5551944601231927
0.053129204589824924	0.5500993262695851	0.20912865981216228	-0.29294287922608425	-0.22848343908438584	0.9284286658515579
-0.3456670115255055	0.5142556100938646	-0.11465254312630851	-0.24267627250726997	0.002181014606425337	-0.970104875741414
0.2331334334507793	0.13945701539786556	-0.015955212172671762	-0.9752717961389586	-0.21377860284953937	-0.05606810697345435
-0.5734761348177747	-0.06927935621492999	0.04593177204543172	0.49450528015568657	0.08923651553210724	0.8645816168493473
-0.007160522797035467	0.40756522487543845	-0.044113769573597555	-0.3237715369338449	-0.9292827784595621	-0.17777938443467733
-0.17107611373084358	0.42307174351651144	-0.005869481041240623	0.08084194093116175	-0.9960705200190194	-0.036167661460506484
-0.521642875645445	0.23410441117436898	-0.05648621863782613	0.38482038522771295	-0.28135292956952346	-0.8790641615580973
-0.11016834993436311	0.4297937355284086	-0.04534248179284222	-0.09655581904164343	-0.9543286941840383	-0.2827255157678291
0.6084260258725458	-0.5117292139265153	-0.24711356811767385	0.3667867581843057	-0.47118026550328024	-0.8021574854234711
-0.5638144132825026	0.357332218091026	0.02855370306644506	-0.8348713684571801	0.33934144428320073	0.4334018716182789
-0.36695719255865594	0.6076107475393555	-0.05416689753428734	-0.6073828348313816	0.6617139628037361	-0.4395687925487547
-0.6355323923735359	-0.15539933824623317	-0.0020052676060235658	-0.9746236988461412	-0.20823829281696635	-0.08213074364780348
0.5072499650712499	-0.4344818337824516	-0.30649323561410435	0.036133155190708956	-0.27626725354578513	-0.9604013742775636
0.30502093767058047	0.25212819044701695	0.24060149029424893	-0.6240040137927544	-0.2386899153575259	0.7440739983880291
-0.021811045955355463	0.6348336177724928	0.1916421157911366	-0.2617778240204182	0.20746646171813538	0.9425656677989566
0.4280311618408492	-0.7233877083997537	0.13613015392045089	0.2821596459751425	-0.830152657450781	0.4808664050550717
0.22716028046852932	0.6836546592687531	0.21600638495742377	-0.04565403663971824	0.515428047769755	0.8557158620189057
0.1802074728850196	-0.5835616522204862	-0.2440219023308493	-0.21980017342407362	-0.05348059403337038	-0.974077876673413
0.25308455846538536	0.14557996155632402	-0.11845573552727004	-0.9158276091891526	-0.22577507882029393	-0.33209246307402435
-0.4819215207023144	-0.44667045006301404	-0.06956100696871458	-0.5961836053284116	-0.26963883276411255	-0.756214261041951
0.20448341267292533	-0.2293776121198347	0.06489110004845212	-0.879726259162201	0.4330853972129606	0.19626193635387246
0.5189063515802324	0.562612594343463	-0.25233402860932275	0.24179312892409918	0.4891953408386571	-0.8379880675205607
0.14543599606886098	0.31758988894392326	-0.07768236585673689	-0.7178523761879505	-0.6330960280754574	-0.289615927111049
0.0004703456214806409	-0.4307043317901659	-0.10679238162011884	-0.3295457282201252	0.7887236558227368	-0.5189553042001633
0.3088489282150432	0.17608019193190635	0.222109104950398	-0.7409857736448352	-0.17706796301901256	0.647755370281299
0.2859553883086022	-0.18489863388153996	-0.19729274888190831	-0.7765430797985905	0.2329820143693773	-0.5854060353270258
0.2418615772427652	-0.28179705470021615	-0.19064141309195673	-0.6949755034779347	0.37529303198888453	-0.6133222560010195
-0.39375269277118524	0.48040627130747254	0.10275948784503494	-0.24250587452783395	0.08105698154346362	0.9667578117411578
0.2426426325851822	-0.18401503095845273	0.12160380493012138	-0.8731799361606595	0.2993290523053398	0.38465428313285865
-0.569927638020619	0.011035561596490582	-0.040060940332304014	0.5868494162575155	-0.04601885042134915	-0.8083873007687037
-0.4042322764240027	0.5642287953678622	0.06193119880118715	-0.6225848897008224	0.6011057630949181	0.5010587956420798
-0.6301421120313685	0.16175340688041928	-0.020874522617596113	-0.8992680018164168	0.16117409598307955	-0.4066201811188757
0.2495990217839537	0.025395518058975823	0.009046914179124992	-0.9988825911519008	-0.041062365822578155	0.023397675241705204
0.29589853537491045	-0.6495409702706091	0.23621640582206693	-0.007158936379009495	-0.4651053694176155	0.8852263806331265
0.43144805748708215	0.7329391902403626	0.11609533809101145	0.34902512289045046	0.8564575043220721	0.3803445896574753
-0.14710044907188638	0.7282978662128399	-0.09248069670698007	-0.3629572855824836	0.7758571424475372	-0.5160500977189504
0.24992798395516702	0.11866026013890923	0.08954212687718566	-0.9430273015633881	-0.19388600650696808	0.27038440226250726
0.4731189687879867	0.44208974532939266	-0.3059301448538091	-0.026786649470686708	0.1921026030587641	-0.9810092075552512
0.22391309765623246	0.8085957680426048	-0.02194388532441434	0.08028360503341678	0.9912388086063896	-0.10488168131482276
0.333892940788816	0.2336426326025927	-0.25925977177423687	-0.5790573803054424	-0.16533169138622486	-0.7983470311444572
-0.5252214306623071	-0.17141424268355532	-0.03220875748608132	0.7895482438028039	0.2813810407447181	-0.5453790247317241
0.5328446771797621	-0.08046913619459845	0.34291505857576166	-0.1631200897005432	-0.005617514448707561	0.9865902289539997
0.19471189893622382	0.28112935166032826	-0.1219817361251002	-0.7728685151001002	-0.5044251594624768	-0.38500586601793707
-0.3738505392990442	0.60488810790096	0.0483000542263052	-0.620772307959706	0.6545351655734462	0.43153847881518237
-0.3988217141525583	0.3405944782085135	0.040978099172524415	0.5635110031023995	-0.7115180976265523	0.41975867606568906
0.2913230526907767	-0.4694582195359064	0.2750205025483643	-0.2827679134807393	0.044285261244604704	0.9581654986181904
0.028617160141654482	-0.4063380320418418	-0.08491220797825738	-0.39719158921749353	0.8249974737715013	-0.4020174246541099
0.4627445807700503	0.6236919001561859	-0.22923379552288342	0.20983632293346607	0.581845863530229	-0.7857633922947316
-0.38173652703182204	0.6103782589711372	-0.011424590696499244	-0.6688418190985781	0.7419678429663354	-0.04619892887057501
0.1372340648779755	-0.5502122303797791	0.23399496241907297	-0.26893597327837926	0.05062190784714074	0.9618268371815825
-0.013539051841410785	0.4993779221187526	0.1682334869303652	-0.2577915400783313	-0.518041036943876	0.8155838435784241
0.055892042192316305	-0.45494677963628305	-0.16610518422834544	-0.3654551764133526	0.575526194482019	-0.7315819253492599
-0.2714250844464491	0.5182424946217407	-0.12954264654997266	-0.13943388391139364	-0.2287155676449864	-0.9634559570287657
-0.412930777184811	0.42328526967311275	0.09486085100617929	-0.10365732282828216	-0.1849283004878668	0.9772700154526094
-0.48410683698165324	0.24693581520700253	-0.03475897604287638	0.6828279920324775	-0.5526243062757668	-0.47786222848235527
0.26957374657477945	0.0550041071722063	-0.12185091555525407	-0.9328922859732701	-0.09492773603189425	-0.34742007383486945
-0.6221583737812303	0.1900078413842606	-0.025377558768929945	-0.8755595929983495	0.20969580348981587	-0.43522760609516153
-0.5883859973243429	0.06756758472346504	0.0503872744999105	0.1830174509031667	-0.02231362121572146	0.9828564060803342
-0.12089285231903901	0.4248589283859199	-0.014595061489621919	-0.03340802284422534	-0.994145329113054	-0.10275684216798842
0.005450218702615928	-0.8004291823439396	-0.01517515535741918	-0.21678411740254236	-0.973166851834907	-0.07714223831168475
-0.37451501613781224	-0.3720561048805375	0.059674028806995995	0.36785201748323115	0.6622340955251775	0.6527870218972389
0.3770863936618883	-0.25230979116459556	-0.28984223536541753	-0.45845671004196925	0.08838055111258616	-0.8843112139979508
-0.6035752620045428	-0.12411398075923111	-0.05054005317136345	-0.32077749276150186	0.03248894548582337	-0.9465972050237967
-0.5741681213361979	-0.18197320682107487	-0.056962638821241605	-0.05901482755915229	0.028841336278898188	-0.9978403817494116
-0.20426519717471203	0.41967229079356627	-0.0171350983344006	0.1339041857546095	-0.9741263856269406	-0.18206442228724293
-0.5320968947197735	-0.18948887001595086	0.04698868655089097	0.5222065302036826	0.24134177224670508	0.8179575103765775
-0.4802497574652908	0.30838277097419764	0.06772988178596055	0.273014915458292	-0.3829323947168588	0.8825109840753902
-0.49826621830012546	0.4469707212981406	0.05470470121042465	-0.646654947675784	0.3812759685638606	0.6606557457875617
-0.39210726030264165	-0.5798736341702972	-0.05874078119940234	-0.630018919035578	-0.608560615458696	-0.4824211220186932
-0.49254467961714726	-0.23341567104284638	-0.033685783615956415	0.7048178512795633	0.5023176298672284	-0.5009079708311991
-0.6422783565130575	0.018673032549452614	-0.026379137619586022	-0.8147155591495697	0.09033814006890861	-0.5727805671707927
0.06518080620427116	0.7238425453118398	-0.17172982908989273	-0.1477873333717225	0.606963068000636	-0.7808679390128207
0.41249988743835886	0.7475851139942196	0.09901700948453616	0.32757116939030256	0.891540478818285	0.3128141678580641
0.18474694260706556	0.2767868763381034	0.09400937831427274	-0.7981404305822365	-0.5098962177429192	0.320901387035749
0.12938614197294765	-0.31862092481112947	0.012928338118695253	-0.7034188559147836	0.7092924815788321	0.04589214223893745
-0.3797079492224093	0.4700935632586093	0.10565983630958303	-0.21118150662896829	-0.050443820380181914	0.976144350105747
-0.17767324172512428	0.5073978408168525	-0.13687641935711647	-0.10382118341227085	-0.46388239243647356	-0.8797921844744291
-0.18529538138571905	-0.42933235339229714	-0.04723086135293812	0.09023177609266385	0.9525043460053811	-0.29084995689190857
-0.058612450364458724	-0.4183223669181688	0.023854534573493357	-0.20728337786035803	0.9704834299752633	0.12327008317612358
0.2552429836807781	-0.013100922622180152	0.06112415063816389	-0.9877173228548803	0.019307731541080897	0.15505386688220937
0.6233872482096844	-0.14001821395213118	-0.34416021414898196	0.073187967895968	-0.08779702002070924	-0.9934461256810766
0.47070910221436313	0.03563556406130066	-0.3253166565037256	-0.36989060561549314	-0.004579516272610572	-0.9290640278840376
-0.5345740034456485	0.1394460775695821	0.02737594716711375	0.8358807508079823	-0.2379328344455122	0.4946628515680241
-0.025347983698650052	-0.4088891948684644	0.012238855896042036	-0.3017310469696862	0.9508436348320313	0.06967608911231685
-0.5759191621537046	0.04467295516835006	0.045227926151573145	0.4807262821610022	-0.039124291921588894	0.8759974494376652
-0.03301309489860837	0.41895291679964464	0.05582139652724542	-0.2420155945139693	-0.9536425334117584	0.17886970252128478
-0.40243369755961544	0.4194246233738887	0.09430615665437524	0.005069678850915721	-0.24067149499056084	0.9705933905891577
-0.490497855726142	-0.48770952771148257	-0.018923464828686766	-0.7050042310720404	-0.6831143601167073	-0.1905880509708372
0.2106957071787262	0.46621116677309016	0.2464002452919989	-0.35335761092181517	-0.1705720558475466	0.9198062690412416
-0.48758036606766497	-0.2258638116100157	-0.012565719737456528	0.832297257887163	0.5219392197769432	-0.18671027120152092
-0.612557374220149	0.2396934367727891	0.01728402675562636	-0.9383353052128722	0.2675337607779766	0.2189806882696674
0.5818466223623876	-0.3922956370093869	-0.30800293804592827	0.18467438194545802	-0.30262127644138404	-0.9350485205047123
0.24320084665158648	0.12665404557188717	-0.0690848201516872	-0.9544544628373723	-0.2233420290989078	-0.19782572231084167
-0.4963327142400753	-0.24942826537783092	-0.0486882782049683	0.5776253790483856	0.39162534981959185	-0.7162251788773499
0.11521274050512614	-0.3317869364456858	0.014576486406873947	-0.6755777279896618	0.7369114207588097	0.023585830482722434
0.24354443800439343	0.44841381449957457	-0.2563445663286432	-0.3871016332818002	-0.1576812781264322	-0.9084541485617078
-0.46490352619592534	0.29395844251831527	0.05352686590494157	0.5335405208608919	-0.48341920786883885	0.6940031570986931
-0.6482700398305511	-0.04562075469650806	0.007056691777751562	-0.9766507890775655	-0.05312261543019595	0.2081615332476758
-0.6437464581813981	-0.09821097769059933	-0.007320622688636935	-0.9789986738907659	-0.12917534498112027	-0.1577191388802584
-0.40440420093086393	-0.3680583887771243	-0.07144527880029668	0.33468752494424375	0.530109914363312	-0.779081343211617
0.191418893408024	0.7704256390457924	0.13490094992671176	0.033308563695802956	0.825872268458912	0.5628725750781016
