0.5222558962826991	0.45367194434043595	0.2665279394628419
-0.5214689885650593	-0.3943787077155915	-0.0677491401914551
-0.7635097150174642	0.07134500707844973	0.04606185702539684
0.7923752642259599	0.5222116196063377	-0.0751270747215588
-0.7112999656360933	0.22251035004103692	-0.09934897002820198
0.554137718818452	0.47550663424107226	-0.2071350336640872
0.22095308067034414	-0.7725172639273973	0.14434188733505438
-0.7065962900458326	-0.17895558857171523	0.09957619627273502
0.18785854932992307	-0.7855498030907532	-0.14971768562534377
0.5538011105486393	-0.012433079312104557	-0.20642437231063243
0.662871149006938	-0.17504504214516764	0.22698428245504673
-0.4068142753490774	-0.6363577569194935	-0.09384531672426254
0.2486169906987689	-0.9637179270356863	-0.01361511710563211
-0.6721284339956864	-0.3670817897147645	0.01599683707198188
-0.23703169881526243	-0.863242835036848	-0.006969673280535736
0.27518476670677783	-0.825719574065009	-0.18021396825794533
0.9748269357475428	0.29583843488174455	0.007969294209210057
-0.6683638847215825	-0.45142870996068424	-0.04749035136414256
-0.8527369157655627	0.005885039982443583	-0.03113268191139466
-0.14518609408231206	0.8683239612342017	-0.04307439005085057
-0.023590117443200113	-0.6638138484593005	-0.08196833400995793
-0.6836784706909216	-0.3967466922115897	-3.0253151809433998e-05
0.3962741814825818	0.3439930719202388	0.011935755646284687
-0.34017166850443464	0.7051681249848744	0.055685794182347585
-0.3526755486996549	-0.5354827475938532	0.024582943935478288
-0.7646546729632163	-0.17247345804798855	0.004334055344824846
-0.5908538872922671	-0.41084098859590734	0.009297426265187293
-0.7227250569635323	0.12395686248889246	-0.04896552942002772
-0.6729597794531628	0.33128720436225645	0.10055419662417336
-0.6954827813565527	-0.18777410312114493	-0.04888736849470722
-0.6522699777614325	-0.2893776320308088	0.00015913601609008352
-0.7568547343895446	0.16147669329903291	0.006734652229478451
-0.04580190875168147	0.7683085474721711	0.1327334878917253
0.7472231965691538	-0.6120631473949028	-0.010037703719229796
0.4914272915755708	0.4062804392793431	0.2413760699935293
-0.18218857061779392	-0.6451735406488048	0.05052650887515273
-0.790877597295814	0.08897108315049201	0.049076134574369906
-0.4696632774198024	-0.6220046893992851	0.01323770394203784
-0.5051026319118974	-0.44555959142796225	0.014707563628375053
-0.16326364052602432	0.680253750573649	0.1318787777793745
0.5521299079409868	0.7640129958634173	0.06627260094276838
-0.550348335366905	-0.4046289405139789	-0.017369192469746268
0.530275726228926	0.5488699358279723	0.29186294946926533
-0.7202457588070261	0.10176439159996	-0.03448312859720109
-0.3977485260872632	-0.5462177431052206	-0.07277863640321025
-0.7488043793399309	0.024970188473452937	-0.04467309385115477
-0.19663476906267807	-0.787646656671376	0.11533623351696491
-0.6672539493939769	-0.526323706816067	-0.01292173162086086
0.23074868953905878	0.6496651367845748	-0.11904650315782778
0.5160804951960053	-0.6236449356006858	0.22741381190928714
-0.6394794868167752	-0.368176151533166	-0.003974367199015803
-0.5626068387242573	0.3943715869814436	0.016101057083483906
-0.3724420925132294	-0.5973205253509132	-0.10562587321362257
0.2964288964701463	0.4358949530153131	0.041481964550510425
0.190842630173071	0.510122069283567	-0.07413949033848985
-0.2794988435680976	-0.7713054243727221	0.13010516666103203
-0.7064838409299616	-0.08770540473772925	-0.09573457412628286
0.7601273449985042	0.6034692020002803	0.07717502650630295
-0.05993814328149687	0.5932541618470132	0.029197877896765402
-0.771873607469429	-0.1772033551037755	-0.022554535729294424
0.7399572706275911	0.17811985145181547	-0.2815984772378719
0.6123436388345087	-0.06434664736590606	-0.2172247328605728
0.4311210882390498	-0.39293782348519457	0.15791382616578137
-0.541919362068331	0.5151041904674301	0.11149461320268962
0.5220750533824562	0.2474364657115752	-0.2114960602964519
-0.3256907478113699	0.7922030814991553	-0.12000475935092964
-0.8374662006225888	-0.18993233401967904	0.028494470546930196
-0.7115385383068509	-0.023219617713512906	-0.04166546037626601
0.950062707512133	-0.386056475729084	0.06633984304933555
0.09508890296972569	-0.6985613686607913	-0.15869482437374302
-0.727330733708322	-0.3696582699729709	0.028322054711258367
0.886546425469311	0.3647113008505569	-0.06243071007248403
-0.5572922607348714	0.5257160438175313	-0.07607588370017151
-0.6073362686035553	0.5261103742666183	0.08887063736554283
0.5874346352196371	-0.14180887119531396	-0.13308014646013672
-0.6842860730886393	-0.40040697749449417	0.030574645448423327
-0.4845253487018645	-0.6033908108435753	-0.10181515662576116
-0.6031340445670406	-0.5361922654082919	0.059486828326542646
0.8971634586304489	-0.46531977401024627	0.029740311292019556
-0.8370278150257442	-0.09496906512656789	0.010901989919570556
-0.29164066376788256	0.8080602145504286	0.03092278379499627
-0.16637588682005194	0.5612133852800765	-0.0320805483499446
0.2411450592588989	-0.5503256428338418	0.04250119931091574
-0.1839629015488893	0.6506642250795616	0.11089270449571946
-0.8035444200298754	0.09972011482254015	0.05771725270798306
-0.6809058439986572	0.25371563015466436	-0.056286136663324667
-0.6951579290192392	-0.25807062266829045	-0.018416950295585842
-0.5511620515998287	0.40852432822492335	0.05082011915926219
0.27207022473362946	0.48402084855496774	0.05039781845164061
-0.7603041394356841	-0.17777883096900202	0.0037138174620051437
0.6261974177325395	0.5245292193275148	0.24396116417574565
0.45064342149907677	-0.8233218056461278	-0.13315964566267174
-0.2515657142905857	-0.6291489258970102	0.04620740509355104
0.12574116697763496	0.787579681778331	-0.17549197596464333
0.059472571486962486	-0.8156242261637061	0.12755736404470386
-0.17041824733680785	0.6160545721458945	0.027191861570446563
0.8396856624159627	0.3510432602073687	0.18897607858319176
-0.008261801130265421	-0.6085601282614647	-0.04236486695696237
0.5259143436054188	-0.14512408680331934	0.13328029739472116
-0.6014778745411233	0.5438691210978652	0.014876899810982492
-0.3826821071991202	0.5303496204005929	-0.06128922340936573
0.5916665122059206	0.18403215110208848	-0.176334309390315
0.5025068826891772	0.7240296976485742	0.15972473786320174
-0.47624992415243084	-0.6198021986022054	-0.07275362205077004
0.5534632745939234	-0.6284952792412983	0.22920979654375076
0.08299557039400064	0.6084016728083443	0.11669756386937477
-0.8038129193221311	-0.1825774258915878	-0.05793526875195369
-0.2641664439490777	0.6920380095634907	0.09404576988622558
0.023632654171192233	0.749463799224699	0.14794489808000946
-0.5840735638294325	0.36324174442676477	0.04370233919772601
-0.5284915018298713	0.46015211939566225	-0.0761038598047923
-0.3115415683517975	0.729208345110572	0.029932060097543754
-0.11937814051154398	0.6409844120624546	0.08884775164589667
-0.6841367746592644	0.0647878814421739	0.020854417389053186
0.4913603989002294	-0.405152472859338	0.22824595532428577
-0.5844504458372597	-0.6235933430120603	0.0020351974342531524
0.6968885285831334	0.5310904492378642	0.1744259802287915
0.12257833579366587	0.5558747937494133	0.047147750050835824
0.4288708961767487	-0.5483696306837413	-0.16944511227967268
0.43911022609836337	-0.7998780875573673	0.17119164114447377
0.5157649553277572	-0.014511831096587782	0.0027316499399143365
-0.7306700512335369	-0.09004442777673984	0.07601674628006896
-0.13542903897392017	0.8886160135520832	-0.08144215972417249
0.3995214244332911	-0.7938651911377825	0.1430563440954214
0.8527461233767022	-0.3534763786152768	-0.11840692448024974
-0.46213842522650184	0.6374387326487232	0.09427130151337539
-0.5726285383347975	0.6128317775630444	0.03724009927380471
0.9471710561547753	0.3259933017450619	0.0585285408342764
0.07082135097719536	0.7083565241394189	-0.15743134713848927
-0.6473427928243168	0.4603446246773886	0.012122382876791776
0.5092575377022338	-0.6311504285288438	0.14034672393518563
-0.7213603369390823	-0.3204883882035045	-0.0411030053352668
-0.002291200154961523	-0.8127165316206271	-0.1512664050294658
-0.5952347756444791	-0.3676192969451709	-0.06524807603524407
-0.5216545829301433	-0.42006244509565716	0.04956536484315977
-0.6211404115396378	-0.4099246206392086	0.04428661678692996
0.34130424362856226	0.8169339274887829	0.16388020163485723
-0.6525583538341013	0.1804832455284541	-0.02266577175638337
0.4337264074784881	0.18552728247266148	-0.05040989831061828
-0.31875584179138106	0.6103959173821379	0.09377732322909804
-0.06036801112044583	-0.7847982768749622	0.11353965975888682
-0.030493084086639304	-0.638392427398857	0.12801328578072865
-0.43196089030338025	-0.6798888571999958	0.08751376424065957
-0.8082590431106402	0.11175916969205381	0.04840613450261325
0.13482950562646104	0.6574827016542774	0.15850077021903017
-0.721721338571077	0.2974355657605973	-0.07729807160884947
0.5644770872275238	-0.13528107018410115	0.21866261000523174
-0.06489058506451129	0.9098079358054055	-0.0019407056550517082
0.49530132258617116	0.363523565907229	-0.15489990317140528
0.29538355651811055	-0.8285938613561737	0.06892347808618571
0.34560524917554175	0.8428851028728499	-0.09276005053082846
-0.22830062048743535	0.6013435353549185	-0.03814109921552776
-0.782767578445322	0.05000058728534008	0.09739681893943455
0.6570837896035865	-0.5852914799382916	0.19252801841117625
0.17716852656073243	0.6799437013887036	-0.14630629854254812
0.4024102605726807	-0.3779183075970234	0.02875453449735028
0.5697613852496366	-0.05014859453488131	-0.0791707116912825
0.30085008392175205	0.5557533717800526	0.2095742616620881
-0.7523869742197282	-0.010002296628155707	-0.04898932686283208
-0.5379080417417491	-0.6911687187659692	-0.0652928467941582
0.2974898344302644	0.8871408849821832	0.07049193294834097
-0.7160902603406113	0.014810207326737202	0.050062558288655516
0.7839673208841074	-0.5698467989819905	0.14204819847602007
0.7101630440794044	-0.05422182047871402	0.23599945681142295
0.552178609905465	-0.060674147815327206	0.11748132841194685
0.9093168818036886	0.323137928543491	-0.03905840878104239
0.6843868670504138	0.6512956961441172	0.11260117538858436
0.35092835110351706	0.4287839865044367	-0.10445676269484809
0.6558613458705046	-0.39953803926292664	0.24843259597927633
-0.7486318432333618	0.11391015760922657	0.04382714717756468
-0.3041120356745411	-0.6338748150654735	0.1480446466707046
-0.0004434407910973645	-0.82279003882553	-0.12877171232876913
-0.6060439248344728	0.5048176693322742	0.023920545404793603
0.7015788899386638	-0.4968834804147096	-0.199312885597143
-0.500358848181115	0.46414840063052354	0.06142432663612298
-0.7216982187428257	-0.28371399564609917	-0.07381525785303417
-0.7182315678179674	-0.10807739879068111	-0.0958640437916318
-0.15619822806787745	-0.6716301702388353	-0.10863990864007678
-0.5956218172058896	0.5069342728309882	-0.06310738405724942
-0.4221914497379367	0.7373015276811494	0.004387680638433785
0.2630460372018175	0.6652895364462795	-0.17765277923512726
-0.5310358791807288	0.6457194643014631	-0.049495029198089915
0.713293938841136	-0.5626142733615997	0.09055190332837917
-0.12442241463215367	-0.5976696515367489	-0.055593348428972886
0.8792264168045058	0.16847744185168223	-0.2153978190748292
-0.6572031517433333	0.12691088361115663	-0.038525113392499234
0.7093890835092073	0.48923839730539187	0.2541679250367109
-0.662838272435802	0.4822590519789625	-0.024562387587025072
-0.6542759173247902	0.310801251998186	-0.05494824076233314
0.30071685096182	0.601195302488175	0.21542145336242866
-0.7148587405045816	-0.32243992514423014	-0.08424602513370706
0.16958535214221632	0.6048625199389053	-0.13198959920636494
0.3358361008490126	0.8694584985915033	0.024243214033571756
0.3989611110393426	0.384659606699385	-0.15901662980627634
0.3036462015994316	0.8304313662774024	0.0014929554784600951
-0.7174854116604001	0.1253962239735271	-0.07918763004167091
-0.1867770462202659	0.617669532940709	0.05679288836999723
-0.22027111758447002	-0.7022744847781072	0.1419275075018871
-0.2461265377807235	0.756267118881807	-0.07312593124772881
-0.5298798819841976	-0.4372938428206535	0.07609186742081589
-0.4940559247736643	-0.46355175921787656	0.05803208474085851
0.920493361485996	0.24431105562687633	0.10743329440312396
-0.6223279982007205	-0.4847545473015604	0.03317728478279251
-0.6111954863330782	-0.5181480924713854	0.05935859725975827
-0.8390068239878581	0.0046804153064418175	0.03238746825849003
-0.525645068318722	0.4478293891637621	0.08331990989841337
-0.5060666338047427	-0.6344609219920021	0.10826081453774491
0.32702114503289403	-0.6292626418377161	0.22776139430931147
0.2546995021824245	-0.6839243930465406	-0.13483533280095766
-0.47701681774348037	-0.5510476621166951	0.05827299452634975
-0.6986975779830812	0.13164274703360293	0.027698721851392313
0.4856148946464232	0.16151964149835174	0.08051854626044008
0.45918141230293247	0.5286813624320116	-0.19169206250364454
-0.4947898914799916	0.6783257894346167	0.023768291282656055
-0.5317838862464257	-0.6051474104415299	-0.040978885802754265
-0.5916075056975326	-0.5703536323080968	-0.023751790278159247
0.9156333150460192	0.42975617240748987	-0.10996022047149168
0.2056566089253711	0.588526584695501	0.08012530857495326
-0.5577749544674039	0.4261513069172868	-0.031554190299801624
-0.034364085658993855	-0.8667846988601375	-0.1074183557870311
0.18554137628494002	0.6172260614260437	0.17203569461481466
0.0861287289176725	0.8090698647202973	0.1784066345796179
0.7094527347537298	0.2128344351123793	0.27423883779114633
0.5946357726438503	-0.7702915028005426	0.0263499058991093
0.47760537171761963	-0.7653920078497013	-0.12080606191980392
-0.335583422137019	0.565944902563368	-0.01474664349073701
-0.3521158250140808	0.7059068294055582	-0.14535264009631363
0.7626168513794678	0.06532186134467434	0.24516388703891462
0.3336689941582196	0.36399622159650113	0.03577255334402536
0.47719583209912264	-0.2611258639872709	0.12985315537637632
-0.12024435825900236	0.8112753989280911	0.12660901802084257
-0.821242437264147	-0.023660372723723108	-0.0027440371284749854
-0.219006403282235	-0.8150509895478211	-0.07138184008395575
-0.34589523252348825	0.5432688714733336	-0.05112801330581158
-0.7939284008784835	0.17190157091695363	-0.022550704966632765
0.24815086070507433	0.5206506730392254	0.09083224453636077
0.13017573927784346	0.7151249687697752	-0.16163692286337122
-0.6360647674927562	-0.4056040598211365	0.04215850807108039
0.7125133443915456	0.43166440843106013	0.22723123244062388
0.7321160847943442	0.10750504042534488	0.2730115084781847
-0.07066030597080358	0.7378354177226767	-0.12867332716531632
0.3178715494418566	-0.46469119126407066	-0.12865176548212978
-0.002890014010038988	0.7276033811655208	-0.15649245095243575
-0.780852296650714	-0.09093829173014567	0.05059033729098347
-0.7589852838024655	0.35087938111891626	0.06000641410108416
-0.38244390113657445	-0.6951498207135054	0.11786341811605683
-0.6015383670708544	-0.5799374070069547	0.027057608118481354
0.9215016291199281	0.27907860154484404	0.1778409658838495
-0.7422307858886565	-0.18386041725469732	-0.03877013708861556
0.012716214357708438	-0.8223905732601301	-0.13665197817104197
-0.31600877353759343	0.7037993631645644	-0.0664664536740213
-0.2801304071945392	0.670909545588653	0.137113175838941
-0.725634915246877	0.0852422628143889	-0.05859108041421499
0.7202061148863425	0.09705260893980072	0.26662530505483734
-0.08585120661173457	-0.8662069344098513	-0.04454292571856952
0.3539639204558546	0.45748330943674775	-0.02403001389155545
0.5033501224863624	-0.20412026666400818	-0.17616516479375258
-0.6154830241159268	-0.3278830161383493	-0.05909549292453015
-0.4648977827991409	0.4783721280906233	0.010275389236843523
0.5436889387913195	0.7994388517813048	0.07210571295108668
0.49634116219928576	-0.05498696510855723	0.04540184375831727
-0.2970707878828408	-0.5712225868819651	0.0930548227277056
-0.6937607433303025	0.3849186699845401	0.009298833648717905
-0.6944883740283112	0.41830050909135835	-0.03827991926075427
-0.24552869799439245	-0.7848225152140789	-0.1088340259885887
-0.6205108596388395	-0.39838731981624564	0.0475905146237501
0.3121767420416114	0.8673401977033497	0.095157269490674
-0.3016876292381605	0.7527597549078127	0.06021491786070639
-0.46946711602612734	0.5877218089323953	0.06771540565541395
-0.7075329370920445	-0.2981029446183464	-0.03023695158188158
-0.6144977461643499	-0.5557748092515277	0.05491433345229107
0.2439408192343723	-0.8364178433030358	-0.09963083047856175
0.11531252814820242	0.5919246968196835	-0.04431646585015961
-0.7573818949080352	-0.20410257260455347	-0.07947384351011773
0.48894378690175055	0.530479677248152	-0.2018033149288399
0.4165983927278045	0.7057261050667051	-0.15509030903563506
-0.4063146328551574	-0.692474014930625	0.09725596541346185
-0.4880500129610052	-0.6568090609683804	-0.0062893273621716095
0.8202024395898071	-0.0128662690180101	0.26578172484638224
0.0625220644023641	0.6576651412173486	0.11609618488591818
-0.008553320473651017	0.646952474208063	0.11286800017834196
-0.500976911588329	0.5027240268650621	0.04908944929965793
-0.6574414867428705	0.4928381577157397	-0.024551215262537725
-0.7245560671576553	-0.268561691227188	0.02387906237936412
-0.43399460861185324	-0.6083581881788647	-0.09267650987151548
0.9085663944062141	0.04201881341789013	0.20348382411783428
-0.7405077767326969	-0.2975177365353053	0.02436552163647233
-0.04270539248753347	-0.7698411585742944	-0.11611070824537126
-0.32584835916669347	-0.5809664272004933	-0.027987298369838744
0.45087771240453994	0.6913289231625954	-0.18526588976088545
-0.7071090839356405	-0.10343971781006162	-0.005578317132130205
0.5036747234756102	0.3118795192286326	0.16735304151323532
0.7841948812392072	0.29195513058726374	0.2412913245278572
0.48071589412793714	0.5766301243853094	-0.22883923417423077
0.48974391106443704	0.11712923107734219	-0.14074594130828189
0.3167110784210132	0.3927954488528156	-0.029720666085134444
0.5057797011366028	-0.43554931960229454	0.18808553017709284
-0.49698481687099244	0.5262616856153002	0.03414831327738667
-0.4673502748412847	-0.6402534801041653	0.06859284013761903
0.4734817219158043	-0.46015619391873636	-0.2166329515709735
-0.5966926750905758	0.3725464830641892	0.01977204260922491
-0.7435480324687135	-0.32906594195765076	0.03407028308985212
-0.7897952589014954	-0.11221049163484773	-0.011603845517860374
-0.3244975016392167	-0.7688705122322385	0.03389781780721925
-0.6891720558689206	-0.2752827125741738	-0.09142376198454466
-0.6813020206056781	-0.4765817627463915	0.01745804600810571
0.2661005032573225	-0.7893984996085572	-0.17416616799389475
-0.3268445960165075	0.7629983884017535	-0.005091490778171847
-0.27005423309508164	-0.6900855675470202	-0.18661309494878128
-0.2879161621744427	-0.5696319503380163	-0.010464302525213581
0.5912596989103677	-0.4227028191237086	0.25375981931997105
0.11106423622896747	0.6083530152847191	0.11176690186488178
0.28943305141295933	0.4735291360989718	0.08741786074000882
0.516038279709443	0.1144980625299423	0.02088329710561821
0.4726697242859671	0.3886819882411813	0.2044978581570772
-0.8504005063610487	-0.02943247502937313	-0.02632518789503427
0.6738720573731917	-0.46459902949134646	0.18903017398579486
0.9831496029389831	0.2858522573176385	0.054009277953619705
-0.061467801968053876	-0.7112620554976288	0.1342354262115899
0.36613815720347453	0.7653049687131404	0.16561037686514624
0.45928747652145635	0.3576592513963355	-0.15887900192884685
0.964190132581781	0.09540712950885849	-0.1171117301939331
-0.2877108112435495	-0.8353340762813637	0.0008827015644442037
-0.6896906092223059	0.187664663968751	0.002789637004486333
0.3396730904554679	-0.45127076550065515	-0.10522866047140456
0.05684260661922006	0.83772752715454	-0.13380147658983998
0.5426258022545363	-0.7749846986132704	-0.07952398143325312
-0.5801020877931181	-0.4178641417233294	0.027374878648756155
-0.7648610432313468	0.0067033016494496694	-0.01875643330850429
0.45626580097010816	-0.34358472742676976	0.1383528464756828
0.7528783459285965	-0.19593317394721385	0.23141183984847458
0.9902725381299998	0.05193070924342659	0.037978497510228026
-0.12316590149987187	0.8441560741139742	-0.003851645016993515
-0.17275906248049452	-0.8813025934881545	0.07529639928689298
0.40902537000930667	-0.5314555234104641	0.16625196196800127
0.9278999137259631	-0.16566872550770326	0.07701236959723719
-0.6086424653534649	0.4878389876136344	-0.06012548880309581
0.18032428928778246	-0.6539241143422851	-0.16265366966655104
0.7245585210818081	-0.35477338275064413	0.2588079783599355
0.19644402531216568	-0.5442511246588344	0.0829100512531907
-0.49728123044221406	-0.545098058116486	0.10484911147989859
-0.16212662933326033	-0.8988054342169494	-0.012404953461101298
0.4499090548520635	0.40082530211183565	0.20428041874359315
-0.2911577994814896	-0.7775936910774214	0.030447056912320324
-0.20848720937916987	0.6480964304699254	0.02999323744513495
0.7359734643865294	-0.4534016607733527	0.14503730006108517
0.6832801491575725	-0.5091906384654279	0.2201052392030639
-0.6409890617926618	-0.24025872087038672	0.06261364454377322
0.5115023886054753	-0.4811080416645177	-0.18054929294996497
-0.7760980607773751	0.27287490530100666	-0.01128928163874841
0.7493299850130426	0.31831785459482304	0.23715503120598633
-0.3663297701306185	0.6600262506223297	-0.10440703650341521
-0.6398082514456738	0.3516526513814571	-0.062010616502233155
-0.7476627312576314	0.06321092777162512	-0.044893279579069606
0.2800549825773936	0.6015773767126161	0.19201566229471378
0.7735369468425056	0.19097577014162334	0.24870093539342164
-0.5220036609561292	0.6204023814261391	-0.05576223483602231
0.6583369244085798	-0.11542731171665387	0.19562333490724254
-0.6433811951052069	0.37130831799544406	-0.07131761919650421
-0.24260963653299503	0.6741546446394698	-0.08939656011790403
0.8187307266568334	0.18548283631433332	-0.2411783247668814
0.5812503060431257	-0.696881490894736	-0.12803716835484494
-0.0971559497910954	-0.8891444550024566	0.08252947223465804
-0.3604507934142046	0.7790514947564033	-0.05347415973557474
0.6154308188831811	0.20421150248643977	-0.20179999687833133
0.33064117207228466	0.5009457907416446	-0.07012111494656312
-0.14530119961420732	0.6872691017408488	-0.10519279703954774
0.6966724448322861	-0.018354245456779366	0.2076235499277336
0.5448884708451768	-0.20565156788325994	-0.17425814481113477
0.5436298258066242	0.010034747158560238	0.040669499557572715
-0.2103641857112785	-0.6518316263806077	0.05280367521197887
-0.6354825876825945	-0.3098798210198205	0.0841930790401836
-0.4877772307402998	-0.7034924415327426	-0.07999076987480408
-0.7578546731506873	0.309236086416744	0.027847419955412865
-0.5462633318268556	-0.3811063029616435	-0.06064338986804898
0.23128687675133375	-0.49886188588247954	-0.04283694806159076
0.2519331230602688	0.5206063714847188	0.16627289738328227
-0.546243473215522	-0.6716954264786767	0.012201405436087397
-0.4890651395127692	-0.4129305197499099	-0.017591251532920422
-0.5952794819344077	-0.5834012674198896	0.036170241961426174
-0.6205419262140953	-0.5949996950305649	-0.05260185142310943
0.45956716336579934	-0.30369374412570344	0.0034423504213665565
-0.18767616300832324	0.6774660424510082	-0.11364276959918922
-0.653497756215732	0.3944397907927363	-0.06687023893562238
-0.2161904182972042	-0.7960138770213392	-0.1290456557302561
-0.5548731724887627	0.6366528900269365	-0.012775103252863048
0.6550432090541681	-0.11352965351317454	0.2129100258057732
-0.5219241859293217	0.4653225439080334	-0.016791902591915396
-0.6043713354145608	-0.3228769622900921	0.07091788291815122
-0.28416345996854553	-0.6211108897481743	0.0836436464811911
-0.6748992602394402	0.18657647056496263	-0.02391463724186436
0.4209319527614969	0.39183365338054527	-0.12462937784869081
0.6111869076055663	0.13989834490320896	-0.17731620410045498
-0.1361072252582849	-0.8955437165965676	-0.0010660701671238674
0.3100376374360009	0.8537666984012936	0.08447273880685466
0.500770254527589	0.016414265682709157	-0.23158679367631776
0.49121686991293184	0.05439592756060209	0.10427879490680222
-0.6961912224888547	-0.43423863135080737	0.09341931193437751
0.6013390473615448	0.5573600670006669	0.2235987879121917
0.5590390625462233	-0.557335607348241	-0.24222391300592302
0.009686648139585762	0.694372077745662	0.12670797457627775
-0.6632804748046573	0.29405189195584697	-0.037095244772421154
-0.684577003791864	0.0825376165435545	0.040074009047709566
-0.1782297412110918	-0.7346709654901399	-0.11528425372232755
0.2030317316624044	0.8484920715515484	-0.04686197615413867
0.5270589406691659	-0.007572245497673394	0.0232944124754563
-0.7308535069865896	-0.1485458879827902	-0.06797646133925626
-0.32164392072528136	0.5686080383590497	0.09350195005484155
-0.6458631177197045	-0.4870793359191955	-0.03211569298392382
-0.0893033971236421	-0.785054416808002	0.18141146346896034
-0.7771659376259318	0.24722367702309625	-0.056533119871442127
-0.5972805037011528	-0.46362079123888533	-0.03619466962162892
-0.05364722216643604	0.8540962274102677	0.059864807279521697
0.6286534608051992	0.49827044834865825	-0.20465494059274578
-0.3632526193839235	0.7783407852781408	-0.055190253617247
-0.6057284507057765	0.46853157806108414	0.031807140237731915
-0.7460579945203117	-0.2650834695331977	0.05455156632503634
0.8174465752487226	-0.5203887768615716	-0.09310735842124047
0.7831951154269255	0.5016707532080279	-0.20787455010592917
-0.026849594304323113	-0.7192923909784517	0.12923402378045976
0.37694960971482533	0.3305197358683089	-0.013824542358847433
0.6965831198496776	-0.1668816680084927	-0.2400829909199842
0.36265579011912563	0.612081664304431	-0.19985941079322828
-0.20119732359299777	-0.7926569992391519	-0.1092745745487752
0.46630003691479227	0.8131269315824774	-0.044270588729282176
-0.6280713077575392	-0.3158572529174517	-0.05850255477530387
0.46481805631510853	0.7949947111394965	0.07819887050331922
0.5673578234693512	-0.7038475815135685	0.13843712752742182
-0.4738033570250928	0.5069201378229238	-0.010870745561048875
0.06549066361360148	-0.7770438264416362	-0.14991471635418102
-0.17444251959616702	0.6399386102949461	0.10619107737213733
0.26692032766504714	-0.8875550823469834	-0.12658527678785392
-0.6931060034913126	-0.2908207942427392	-0.07247179927695369
0.836203330463884	0.03700340774795805	0.2675463491984563
0.4289582134305697	0.530942407752259	0.24799462267843475
-0.6803632651646904	0.416961503100005	0.031808411415657364
-0.7196164278844607	0.1734564588568012	-0.0018266347447559272
-0.6889985963363991	0.10347142637267548	-0.02299080998340712
-0.7201763380775739	-0.17104628604868316	-0.028290328844694703
-0.7810086341898318	-0.2433055112065718	0.004347336860482345
0.36240823503808256	-0.4438771993121011	0.08156080940011456
-0.05645508034733451	-0.9027383734530448	0.0026877363918439354
-0.26987384982043	0.6622978449574162	-0.11787181363333148
0.5680758510046787	-0.6195186165137316	0.25160326084518947
0.5843063238135379	0.7345858459822427	0.12483916419056394
0.2760858504112717	0.4468706346234968	0.058764222209613616
0.03277465468580687	-0.6461925289377535	-0.030531866233787418
0.07383652467865652	0.6098626456035297	-0.05495164426375777
0.8263568834849857	-0.18873147494266834	0.22126680546419863
-0.7367853720151387	0.13848028681306412	0.04959367900928239
-0.515081544035633	-0.6484981330784036	0.015294171346106507
-0.726730688903798	0.05937752957141271	0.0111027915044749
0.2949484459459288	0.5086102470577922	-0.08090467486848352
0.9360553043896624	-0.04676259773336421	0.20247169249799246
-0.3363187131502056	-0.5896190338308938	0.061774282719051554
-0.4045955565926362	-0.6713843553893636	-0.0901646481775236
-0.7712117137849301	0.006542090932644773	0.04789244474382495
-0.42833758216488926	-0.7370375113202571	-0.005795204077461567
-0.6891587411531566	0.3720928913010853	0.05476543734017062
0.2293328707669398	-0.8963177016019541	0.056279359527068015
0.6471354007377311	0.20835733748831153	-0.22433098598370588
0.17105625466330954	-0.8785380255135489	-0.06737854446159616
0.586060286467617	0.3911993867252261	0.168418584520976
-0.5258963659115189	-0.4957891549652369	-0.01561085201945122
0.4300697816154293	0.41861560701714706	0.20722351533272496
0.36543078801141243	-0.39007893579068253	-0.034768424607423465
0.09704242232800853	0.8980094204186193	-0.09021913845894097
-0.8149410773535427	-0.06474536207774492	-0.037662790436356175
0.553341238963723	0.34576564209787797	-0.22294478407321242
-0.26193292862010487	0.7956402719956871	-0.06824117069686832
-0.5399182566803302	0.3923170649965679	-0.019048762498864048
-0.363022122750436	-0.5557144180408943	0.03676542900571922
-0.4653236256612856	-0.5970772799498123	0.12688947421043245
0.8106513780178681	-0.13789706702162863	-0.2582070553625688
0.3525426829708552	0.7759925869385764	-0.12299260334349107
0.38911949594378176	0.7897190466405797	0.1431369094104727
-0.08369374690871924	0.579411920218725	0.0032329536630374064
-0.38766701804636144	0.5804894698580824	0.05463658387621705
0.911086953848976	-0.1480728463523087	0.2068731610207717
0.8055200900890392	-0.47087423285461233	0.12227745547519403
0.023833083296835828	0.8688159803464415	-0.06020683133970514
-0.7334372450930474	0.2031440617711159	0.0044073133602450035
0.8342435596043213	0.5177089929281423	-0.15385848908006056
-0.6432334316712202	-0.29011941811099	-0.0492690191828
0.6791203180000208	-0.6804383198639382	0.09545198890547704
-0.5187842156873961	-0.596661093179443	-0.0076291339610186915
0.5989878125119505	-0.12298154535050088	-0.17601823509179162
0.5161928451351843	-0.20914220165163963	0.15530600334517636
-0.14283958922977522	-0.5845111650083227	-0.010831416101893549
0.08461815905249452	0.6629642048542352	0.11201251117565665
-0.16325707848493048	-0.767093964003603	0.14593355961886428
-0.050684025475308134	-0.8998116093948202	0.048056298239904975
0.13504699328072167	0.8818815059277149	-0.08643994355850478
0.9755485298654447	0.18787591149141258	0.07507559795742744
0.6689304541335741	-0.12953224862329699	-0.23870819178635086
0.14799551052025803	-0.5705504166625214	0.07875868510398432
-0.6078645032524156	0.2671773097424123	0.011674938783353747
-0.676201854868453	-0.2662782439793444	-0.07346353091777302
0.3364772047897011	0.8441318520164565	0.08881289546073973
0.4686146411203838	0.27091976768685005	0.1350327805191227
0.9325229113630429	0.15779819002318884	-0.20546656669150673
-0.7410801567366385	0.30039619640483395	0.0447429236080492
-0.458059388823911	0.5031666866056551	-0.024488652748274022
0.16811743552708744	-0.7088966555214247	-0.12691766523342274
-0.3525003989866105	0.5499428841376361	-0.001330106142024258
0.5093100235075824	0.46721764676181743	0.2546850550546746
-0.6986294252981629	0.43909651586097004	-0.03366004789854647
0.11052856284555618	0.6848417820907411	-0.12895655889195518
0.4670048235058583	-0.7229131257516247	0.15868981031757293
-0.5067417803520554	0.6460862538198943	0.07796791921552045
-0.6105349965304154	0.4242134556098857	0.04872912782192866
0.3060486820097976	0.8596038880360652	0.0881393275824433
0.21439565823579096	-0.8284946701431098	0.12574886756521877
-0.055090185422367655	0.575343160008188	-0.01745711130684465
-0.17360903605364872	-0.7776372660513619	0.07279959747351854
-0.37111249252958345	0.6083584761129	0.08463169881736723
0.15643957792601415	0.7548460990502501	-0.18302093508476858
-0.6021728075540257	0.5434991825583575	0.02147733787272496
0.5293478354047269	0.14595158919924917	-0.027480064013776444
0.4920769278786686	-0.7143110186835506	-0.1836746457664158
0.6221901966517563	0.029969225886548913	-0.22311493267595486
0.7346098194204822	0.3957436105438025	0.24635249068940157
-0.6205341756509491	-0.3729805216956109	0.056277306797566186
0.5165557600055942	0.3762281834099329	0.2073242209597529
0.013816567065854924	-0.8182441107382253	0.10406980891926967
-0.6473021421828344	-0.3577166912205536	0.042895131159068234
-0.049063331436644646	0.7657147746123396	-0.16104471031129913
-0.4313414851080014	-0.6498872183406045	-0.08183166611560498
-0.30097760469230816	-0.6662950453394382	0.14114760257223583
0.7033766488787742	0.3509751162718941	0.2520504406449468
0.6082122827764508	0.6680110852248008	0.13227154202688327
-0.7423970429882353	0.0003389010924563973	0.005691629368316124
-0.19210440629730924	-0.7476586449917226	-0.11592333524176271
0.22008846550690925	0.6546935342237962	0.17122166099488964
0.7249915899954915	0.1796893299562139	0.23852945330623385
-0.01501294762786925	-0.8301843909873423	-0.04590605161043323
-0.20880693679338522	-0.593475757812376	0.016049213378129052
0.28272371991124734	-0.5775207544141763	0.14642902092244175
0.9374812839214488	-0.12951679221225115	-0.18697304212108382
0.130197082022086	-0.6443880698189637	-0.12680354517954334
-0.37584309333890004	-0.6273950151054674	0.11886036120258987
-0.30064881727018	-0.5520209300061818	0.047486183917272065
0.49347233989028894	0.24619320825653532	-0.08373639790883615
0.698976393384685	-0.6526782636102543	-0.08289654016299595
-0.3059448211843912	-0.7302599989412579	0.11476608966011811
0.22535999160645798	-0.8823501684741886	-0.0558916906403208
-0.6595747340679601	0.43824772888939184	-0.02806116153217262
0.539747403906761	0.4987848132742924	-0.2319167936361539
0.71702826638287	-0.12822821116499514	-0.27043192691363327
0.41405526077290206	-0.46282307043654114	-0.182346995964577
0.6869519153099714	0.11978414046862836	0.21278653123743518
-0.5794799933473351	0.3750431703086583	-0.05392570375875721
0.6533744333911895	-0.7299576254650086	-0.05626364005111025
-0.29422154302456693	-0.8508815143334943	-0.02126711099661402
0.02172004652151121	-0.6448111072966961	-0.08833213387234536
0.38239541503676844	-0.7684159331569278	0.16230984096469325
-0.5778734893343517	-0.37426297963357014	-0.06946902218041066
0.014565666348568788	0.6518457000110978	-0.016666358420610164
-0.5978931436108199	-0.43736873318265773	0.02865106483544408
-0.05436903929500321	0.6839858058180659	0.05765276834169035
-0.6947574344303311	-0.03391230940702443	-0.0328036516721956
-0.4277130239953656	-0.7312530353459271	-0.010351460525309707
-0.4639629618068577	-0.45677509646224246	-0.07091005650377934
-0.7596486077697846	0.06905240944954028	-0.046419821902662306
-0.11224973126650385	0.711918480237185	-0.12611167329809003
0.9495970806952535	-0.08408807644022877	-0.16990253614930978
-0.6985020480793077	0.1852426276721114	-0.04819505220536825
0.38543333529449486	-0.7799578658336997	-0.19737493596063374
-0.5054526767265539	-0.5688747421607996	0.043904927415033
0.5783211836934081	0.2834954700588029	0.17961874592130295
-0.7000933799559458	-0.13705442250963476	0.013575889952407305
0.21065912022706346	-0.5928338594430722	0.09378957718542953
-0.6085482888364357	-0.35879217149772163	0.004783915387071316
0.179568290124648	0.8239784218249543	0.1198120582267963
-0.3509797003414609	-0.5967981075774272	0.09679351703031343
-0.716437811153981	-0.14023892270767063	-0.007648993626343775
0.34296674014899053	-0.7638213484309928	-0.1242759069303343
0.6505468877616063	0.672459559940043	0.09116948997414943
0.5041859111844386	-0.8099904118402553	-0.08142190174846402
0.7272762016808066	0.14343862832579043	-0.25168671561284706
0.2793760571525165	0.4981434772589202	0.116119226335896
-0.3416723799127877	-0.5740583324484424	0.045136245929111155
0.2847845793870052	0.5933115384010648	0.18469500809944545
0.008922153898603803	-0.6608474960246391	0.13995945972559953
0.46079924032069053	0.27612338101211853	-0.041498534113330626
-0.7692871391193216	-0.18038390229862122	0.07773956990927577
0.6171071604015783	-0.7110217523679255	0.10921919312280486
-0.6487009805626349	-0.24427052955751782	0.032446565686651045
-0.5474586823519221	-0.5758248531223331	0.06986857705155401
-0.5547409000180977	-0.36761983339081566	0.0011915219733006702
-0.5661337734025668	0.5051949141941324	-0.10264052151787456
0.33385035661213197	-0.41046893197278617	0.06520473139076206
-0.7507438289249958	-0.31849223358514145	-0.021000341709483172
-0.22343356087752514	0.7928443131835549	0.12259493578971103
-0.8083005638342606	0.1368137835621064	-0.010253215688538507
-0.010926848140517989	0.8027946608057495	-0.12644715300352638
0.3644098298154631	-0.7906565403901955	0.2052122681994624
0.314117760742984	0.6399935998916584	0.2105030716373011
-0.15604000266502413	0.6795616366618179	-0.08658827293925031
0.454794491481479	0.06673195246674835	0.038520720801437355
-0.8100449909309222	-0.05707922224743467	-0.032339290306289
0.058984179160132516	0.5990927731839752	0.015951007328856813
-0.0025838502017701687	0.6119432712158164	0.04754229057509219
0.30787409878822225	-0.5283316939204975	-0.1476835475387921
0.4267325584610292	0.5243233415890859	-0.14338772992889495
-0.7678000669089965	0.09016186737439057	-0.04205402429821861
0.5970957815188703	-0.33641972336593007	-0.2811925823535426
-0.6968994621984079	-0.06090378892502786	-0.03573485501294437
0.9061594191076847	-0.4064431523264331	0.040140076188136226
0.0002962368770540449	-0.9445563485626658	0.048658000800042116
0.518639196420707	-0.7278509029139569	-0.14278032021050147
0.1262511846663795	0.6037831530532737	-0.11867228600525052
-0.745337697172997	-0.23774878462222393	-0.04350941718575223
-0.10332322881067499	0.7588129621492331	-0.14359809828323647
0.3570972375366302	-0.8057734055303593	0.18618955235195983
-0.21350679132530814	0.7552932377614612	0.11233012927594577
0.451124065485821	0.1756812768791589	-0.0466143475475132
-0.5533503117866243	0.5143766326872086	-0.10093215819611995
0.5674903745457658	0.12405062277174389	-0.20139487894836924
0.8106332029730563	-0.5656215663374672	0.047747139651866374
-0.24990419226186505	0.6212455052353006	0.11685941610374123
0.8587052579658292	0.36069712288611033	0.09774672828834599
-0.3139276090045027	0.8331498906647024	-0.042362504423309584
0.1458064678018165	-0.8787435065569119	-0.11810064112653562
-0.7258068231355375	-0.18473730916807238	0.07412180212874546
-0.7800697660354262	0.08048367046148167	0.024556522926600634
-0.6529980400514023	0.2770105277926297	0.026499460153927328
-0.7423690452104267	0.3936679954389973	-0.01063401091843285
-0.7767285311471993	-0.17338497771496117	-0.07295344482416002
-0.8025562842153044	-0.013959326381992494	-0.007573204140157219
-0.5492221489378222	-0.4336550148557785	0.03606098346270315
-0.6614538170315867	0.31928887798754774	-0.05532701818769135
0.02472207887836998	0.8832022401175292	0.11890045003511315
-0.3575068238145737	0.533223369227961	-0.019693236141374477
0.3754323916432414	0.8623994909039593	-0.051971543299567165
0.464985212731879	-0.3011623742822752	-0.17004108202288146
-0.31228126287673885	0.5711017969638599	-0.08133039324260606
0.04545866337414805	-0.6360470774955024	-0.05649236325464983
0.05927102773818505	0.7024518610677415	0.14057932908025064
0.5407084920842525	0.6198757735205234	0.19479129273655285
0.9526802780386038	-0.1426360265936987	0.13032106124045723
-0.6800597529147693	0.4646345339679851	0.07215831848375785
0.6798423035468295	0.6696820841451968	0.058347942083080695
-0.22731785796736362	0.6162995714711829	-0.057415429734207206
-0.61257154209136	0.31396708424084085	0.02120355794167153
-0.5316322419939981	0.5714648512326675	0.1222457986858615
-0.009091744704774418	-0.5630596163083621	-0.012697339376541312
0.24586864492159746	0.6101883500271965	0.09037448380812808
-0.6697009396555484	-0.13676416147901813	0.03541686068111506
0.500810148276669	-0.07589127892703308	0.11624656060202418
-0.02332959650271245	0.7871851576776739	0.12105734419026773
-0.6799481742790375	-0.2445929497634322	0.015440712218130953
0.5469092848188731	-0.1091925870357616	0.013877454044032251
0.5686516444918382	-0.5741587548708672	0.17999082211689957
-0.0866436293456262	0.6424353356644891	-0.15228737507819673
-0.5154834897320976	0.6372905783126538	-0.027192877898242818
0.2884936457948436	0.5157949785353192	-0.15991892915995282
-0.3884352734011249	-0.5788723617201319	-0.06102462642455766
-0.6095926571832375	-0.5583885187510561	-0.0005674352318927739
-0.6797025025823316	-0.3291398852102332	-0.07212350365990414
0.4948654114531105	0.688912449603755	-0.18872594710582494
-0.7112035176586357	-0.2929727486361336	-0.05787877392419822
0.471252690217537	0.6549655506999008	-0.17639783409759388
-0.5152747573152365	0.5476763086136367	-0.05343969786997756
-0.5452010015721659	0.4475128743184975	-0.0032650071550651937
0.26794608222733135	0.4851453132322785	0.1101002788465055
-0.06762300127896266	-0.5936897841861215	-0.031129340618540342
0.5013350613626423	-0.8607506919821056	-0.04242697112120983
-0.44563568582866414	-0.4688549381161542	-0.0392937929624855
0.5407148069107891	-0.7406106172736127	0.177988360047612
0.1786521408899387	0.8444720672526171	0.16151556646881288
-0.09557237876500907	0.6985289653793928	-0.11846892815876467
-0.1348418189326279	0.6304452010444118	-0.06481835125578615
0.775658755677476	0.02284223702843882	0.2429978178720233
0.22839227292027894	0.7428817878378902	-0.15847083755824698
0.3385231293963992	0.45313675058129743	0.06255005600077548
0.4770821775822994	-0.815899697543577	0.06120132022677593
0.8568004254297404	-0.1000883468788791	-0.2046948386390105
-0.4768519237841735	-0.5376235577681014	-0.09314828189202348
0.6412638840887906	-0.2289375215915372	0.23772074109604976
0.07503517662989292	0.9125083930726381	-0.07185133845100336
-0.393249340889327	-0.6412948510717577	0.05466166841542305
0.5318989233827356	-0.6416872329320343	-0.20443530121704684
-0.6319956426505783	0.28526815785448506	-0.002771111022805268
0.3972637112621672	0.5584708842743535	-0.16159657166977215
0.06085435952100017	0.8215517652820418	0.12108673852382607
0.5810032487399925	-0.12647207158143692	0.22498101120966038
-0.11662225138354831	-0.8821170138087238	0.13952927426308195
-0.6518352146238858	-0.48409640044089397	0.014289928221726013
0.09582801648949345	-0.6698641843195223	-0.09737288232837152
0.2716797751761124	0.8058469596940844	0.14113098615845693
0.5864854459974713	0.21955661535820348	-0.24045470264775054
-0.13267719851328275	-0.5851210962801806	0.06176927827912061
0.5037925940983776	-0.0071568899820444835	0.0006642279376454716
0.17945562723935526	-0.7471212372447109	0.10314672948555523
-0.7795489334404425	0.10670333492369659	0.06793266218103403
0.7622236525674437	-0.4539193158598797	0.16558353242833324
-0.6460426019686821	-0.27127154322685776	-0.03812322265538587
-0.21947075790629456	-0.7164113480405822	0.08543026354369822
0.44667462098724775	-0.6425216470128238	0.1954977928623921
0.0841363851870845	-0.6399924118223976	-0.16695560960729372
0.3766316624500359	-0.3011884266469562	-0.10802691330398893
0.46648626477264254	-0.3614357723244115	0.15700091475314232
0.28114641781241356	0.5492924657054329	-0.17555006450894828
0.49793915921087556	-0.1377206626024322	0.0398810259792038
0.7527295259239242	-0.11752583520995505	-0.27562161155947285
-0.3682557441621237	-0.833663432145757	0.02031995785272693
-0.582030629986648	0.661774650221256	0.06771972441935906
-0.7813467053183533	0.26047918362183714	-0.024866019021554813
0.9538581131566212	-0.12113432640600967	0.09778384398254408
-0.721137894119988	-0.17568178142223198	0.08296184036881896
0.7097222466673232	-0.31358584448401566	-0.26719913042116
-0.6947994433606379	0.21172397573367815	-0.04220844448155768
0.7403720720278332	-0.6123223590565018	0.0847672466114299
0.8733125415274592	0.3502665269504736	-0.09899313121749419
-0.5032340648086898	0.6321684035233844	-0.022253199848317314
-0.7922171899421719	0.067670758433724	0.04558287388378124
0.8986448042255633	0.03224012748070949	0.14687678490067424
0.3546594138082433	-0.7688603688403062	0.15597678462948544
-0.6359535104942584	-0.345140053351709	-0.031437915163864155
-0.6064009165985764	-0.6065339154970817	0.008842620696295432
-0.5766700177726203	-0.5120517929258278	0.05122890675638865
0.3521503539133947	0.81768248577648	-0.14392694570385975
0.51872054947214	-0.09406215753503284	-0.19024059689842615
0.33753819523172857	-0.7257672816452663	-0.16449608153668324
-0.7322687290557448	-0.14055873602185415	-0.031433064487355264
0.3785378438834822	-0.7953697475068386	0.121929185401151
0.14791271582433083	-0.6323641636943462	-0.1053839992784989
-0.7698201168091605	-0.19304902948287297	-0.01141414692264299
0.9680333707805663	0.3295195690302154	0.0635957975304765
0.10646309395781887	-0.646946835218619	0.19105069292630159
-0.7791684980856822	-0.25433449507391376	-0.04785317627603028
0.18577586063494753	-0.838397257973113	-0.10129095830724869
1.0038552510651257	0.12325240961974118	0.037349910334336475
-0.0486555073776356	0.8896335618432848	-0.08964310818256667
-0.14792222570365537	0.8711516864773763	0.01927309761126587
-0.7013873464712326	-0.400045675994657	-0.06435710749193546
-0.7335363273672932	0.28513067039380124	-0.04555678576240077
0.48691093228900545	-0.22358809203134403	0.11759494742765216
-0.07512872272602607	-0.7081264016625317	0.12551491115114446
-0.41854138104391914	0.5194939894105658	-0.04604968755801375
0.6188590069329528	0.09928817858548933	-0.22433173032846357
0.09662857202407932	-0.5744062173678051	-0.0008457202110634179
0.6501830465015367	-0.2911939090142689	-0.2154612531995688
0.5457027857199382	0.08775285641439258	0.15149688493265376
-0.45708917110167946	-0.5414952525529956	0.0378434928312034
-0.5302794906063567	0.5458756059429049	-0.06532619749916883
0.3365495641560009	0.7772293327756479	0.18566761294405953
0.023991821577061978	-0.7282970705005736	-0.15654921283714132
-0.09228695458041197	-0.6116360250987163	0.001694246668170054
0.21953920229497093	-0.8782318527934091	-0.13924076753933592
-0.3701528494063165	0.4880535059526299	0.04891571678422785
-0.4074086787380907	-0.7477249575021063	-0.026544406479781048
-0.7742336963690559	0.018718065329918522	-0.005724538114592251
-0.4546717382469877	0.5523759389985878	-0.037929286607625796
0.7575378045320919	0.6203871604318699	-0.15530288836831477
-0.7483786218506258	-0.1974750118879611	0.061888580045699075
0.5421971770203905	-0.029862869549205605	-0.19452586572668024
0.6668151144269621	0.6848598844181067	-0.10713110296408136
0.03872797602884123	0.5749265738734157	0.029099579970788242
0.2633911435898539	0.6830285486406111	0.149435460934129
-0.6841213806801044	-0.28059794888815104	0.05704609272786791
-0.6240941934374852	-0.46859218039213413	0.11537506670837704
0.29227074526758734	-0.5474135105259923	-0.05670259411620904
-0.7583456404298176	0.22846492350650005	0.07665650486808448
0.5970723068624574	-0.625276012028349	0.20559293222802386
-0.6945951102096811	0.07662072106935913	0.07901382116678933
-0.04404991282544028	0.8640334762995789	0.048223619679909915
0.5599931597448043	0.3695979650468207	0.23930857893868754
-0.7225744155590336	0.05713252579656669	0.04413752908319489
-0.6729423190525585	0.09260240483704171	0.02433345943360669
-0.2617520047000384	-0.6564568117223534	0.09074514991425336
0.26586781669808174	-0.917945958225555	-0.011949786541907023
0.4698383685716287	-0.5126553396729358	0.17101840900034515
0.37770746460668597	-0.6725943427515471	0.17719310149538492
0.7004707579446057	0.11937610403907685	-0.24585995476541664
0.3032088017582408	0.517592301252641	-0.1395585519512663
-0.5192828218499147	-0.546462328451785	-0.05916389878870017
0.9395682848604414	0.3939478822637581	-0.028581340981985774
-0.798752815320389	-0.10801322160007801	-0.08897950903134087
0.2991606046067417	-0.5943717986192619	0.15255727426621082
-0.46294114785366824	-0.6719747335685792	-0.046619370669936766
0.05376871812944939	0.8572228720364544	-0.13493290373610514
-0.2497551835170987	0.6425280629896989	0.1039195530955464
-0.5096102993724825	0.5351061857139896	0.09541779076922977
-0.5222518881132406	-0.4958882835742991	0.10528114959667899
-0.1795427263961446	-0.6303990756091478	-0.09592695364364201
-0.7192573977017018	0.10294535533849485	-0.05128027468632325
0.530187124404931	0.44464470878134366	-0.2423740174855422
0.5117842875857973	-0.6616759911035395	0.17605255504092449
-0.8048144939124035	0.08939494435094042	-0.004902942912966772
0.31318162562035656	0.7869991468935952	0.11185232012277532
0.3102046199939069	0.47357455344995625	0.1049580733747661
-0.18415269228964837	-0.6315215534673895	0.050456562074571554
0.4200397770810084	0.8184539755930855	-0.1278452915357321
0.20526340833693563	-0.8764531455252635	-0.007821356221449607
0.9064168410187842	0.3981932562159106	0.05565117123188991
-0.3380576365701265	0.5683533285872192	0.1151218007362636
0.8993548173108092	0.3294177906553008	0.11880325094441077
