-0.7201813205060631 -0.3080242881161837 0.04756555578690617
0.09087267195292627 -0.8445983246441233 -0.12620952644223984
0.34053929209728573 0.4368043327763572 0.07909600439406665
-0.7624540134883815 0.2145248465399438 -0.03344850894718864
0.5886693096928503 0.2838987807073654 -0.2198464874803597
0.22121818285746306 0.870207139638965 -0.09288848558574767
0.015251101238007077 -0.7427883606935538 -0.15188902791422873
0.9481774083833492 0.15426194147026437 0.1322189912002772
0.5763332704546675 -0.7024238252812154 -0.14282079896876887
0.15919406660714766 -0.5738212345093143 -0.08580559654985767
0.3793341946991129 -0.367911353723216 -0.010039449426228307
-0.29412737537959177 -0.7537481497431991 0.09707044831570066
-0.564539128864293 -0.39137717007980316 0.024942505903215947
-0.1890145216672744 -0.807477874465709 0.0994615122846262
-0.6807413197134632 -0.2265325150082077 0.0444729581394773
0.4044924523679212 -0.3947138747039587 0.12218864407607444
-0.40095108087883025 0.6376547100513218 0.09671542656412943
-0.5580735486109846 0.5321876690881016 0.07469467781473604
-0.6367780768097594 0.3047925452733742 0.040458241893040654
0.7147414448461684 -0.601326347908472 0.13205062615051424
-0.14080401952689214 0.6094412851117854 0.027424289862347354
0.5009170669087657 0.23078576729444916 -0.13639617808524332
-0.15843395162903384 -0.7235292535897803 0.12827076786309272
-0.1778644543978062 0.6419535090785539 0.09038738253031049
0.8661785245425428 -0.2942287173628033 0.18087717429769615
0.31412864421590286 -0.5047481355681367 -0.13025916109179303
-0.5361360765897046 -0.46772231586987045 -0.06393924287797628
0.3646862498353709 -0.4424772001280876 0.1201509039036177
-0.3120116483572411 0.7715121059309797 -0.07680346586873205
-0.7261284601374373 0.02434473220047971 -0.04421628937419715
0.6500247350448747 0.6981562643246011 -0.07749099977127583
0.5687870696057173 -0.760870437196103 0.06371252097253134
-0.26111079806314097 0.6652391516606883 -0.10781514401809619
0.6169693871529935 0.4149917203328568 0.23288672286698928
-0.04053061298387127 0.753926777304675 -0.14454482954160816
0.34879460072851165 -0.6913098281082141 0.19352365754550307
0.8416028565874122 0.33404210534382334 -0.1866852388294088
-0.7274710218506143 0.26980212129097414 0.049926412537167474
0.821200892297874 -0.2804962075900268 0.214410181173898
0.20688663430932255 -0.8503774378933056 0.12033292753720845
-0.23876147401546316 -0.6412043269300102 0.09445276134218848
-0.7458082978325681 0.28663862011575614 -0.02845242180530435
0.13654455473037416 0.8622679911836346 -0.1109269384962975
-0.3222568107566288 0.7376404811391976 -0.0952459985025159
-0.5578209593777227 0.41014635407149924 0.038736326288554945
-0.7288662355581591 0.01978863766766505 -0.04547888508576488
-0.12080905036760317 -0.6319284018459426 -0.07648501079304955
-0.258189295071272 -0.6117304727207765 0.0703418662295394
-0.7588299304001844 0.04050329150375683 0.04915307188513678
0.7977142645683438 -0.3289688999492569 -0.21456468327352654
-0.35952800533591894 -0.6031417420586419 0.08644691206412164
0.29445606994823437 -0.4666427510416906 -0.04544915043848757
-0.33745678324505707 -0.576847538881244 -0.05680755063185258
0.9632584577441146 -0.2065810981321862 -0.07805457166229365
0.5623288318064668 0.6291308286071645 0.1952761095241706
0.0638593125588092 -0.5924285950563415 -0.04550822246239049
-0.06850089621677466 0.8819450900567312 -0.046036245146067994
0.7065045238222758 0.11319841221904202 -0.24633863092045388
-0.5913638451559371 -0.43682764212368425 0.06797398257063139
-0.7337499895004513 0.15260041810616737 -0.05209202708769614
0.9361121219952394 -0.3074132948288128 0.06829824991641792
0.05132258217769617 0.5904820762364245 -0.020784311167596083
0.8198657551282449 0.18919444429031695 0.2299347883850316
0.1776407324218126 0.9010678280437265 0.017730753457846245
0.11925765921738872 -0.7397357809651124 0.16591461557434273
0.5730826302328224 0.6776290179770803 -0.1647545670091674
0.7542299184580936 -0.6154661311873103 -0.04246511083147137
0.4080166616019619 0.3265364660369635 -0.017450843765792447
-0.7525051370045824 0.2893581878698809 -0.007061682898329934
0.8116763578866566 0.12487719987884185 0.238425458346244
-0.6035594225287382 0.47154610492019244 -0.0693949166861225
-0.6050409558432985 0.5634708752945345 -0.0023098448705147984
-0.33095364517047254 0.681724925597542 0.10604037003875161
0.715719783993624 -0.023180091319931883 -0.24763734543943344
0.5190516670061095 -0.6218813632470443 -0.20548865970511832
0.6510018197124108 -0.5736639927129865 -0.19179411476594138
-0.22863217194367083 0.8289565198609776 0.05613181894239203
0.05547909577685747 0.6948343990686041 0.14881850755491616
-0.6211392400408604 0.38268079600600785 0.06155647598379969
0.1529646799652699 0.5769962399257305 -0.086099764535479
0.37157133129398445 -0.6831361908946227 0.19583891973547624
0.36028148034316265 0.39748907521054283 0.0395289540376442
-0.7047426879188192 -0.012381887184051931 0.02152096130292035
-0.5061319208211353 0.6289361347275406 -0.06587238867427364
-0.274185979739617 0.686249944961688 0.1123601333946057
-0.3970139486970223 0.7377484219198014 -0.053122668311915026
0.46740051165547647 -0.21951921563770926 -0.05718762316090821
-0.75053467095158 -0.08872353524065571 -0.05036309821139412
0.54877133727701 0.08982373696239829 -0.15568494409297184
0.49110884720869163 0.30868611509518723 0.16183142411065415
-0.33340706313689616 0.7712408263718321 0.06348498331249573
-0.3786106221250065 -0.6033121241855682 -0.08919357193096938
0.4930225997701765 -0.09329452267942001 0.003749005208076534
-0.6743727563607065 -0.2803890333638778 0.05420821294479898
-0.6681509681629972 -0.23248354267009622 0.03570809584653998
0.6599377032550171 -0.3247373660123934 0.23928698395048656
-0.0770670863256396 -0.8598935436142472 0.0839982478415436
0.5836666127625725 0.7564411886644884 0.04849609849490765
0.4457869108252881 -0.5599808074782175 0.20950163177108916
0.28628114588372783 -0.7485635872550097 0.17845528349581238
0.7475729493980027 0.33555178716267725 0.23102469524525462
0.08790498221657038 0.5989905071126962 -0.07848261449782634
-0.2609687830442693 -0.801242742438864 -0.07470197279208339
0.8111240940859481 -0.3170604314962179 -0.21095344089195575
-0.06895877738742376 -0.6749059312456456 0.12012576223455579
-0.021846855954188893 -0.8205302317783543 0.12920136012820105
-0.2736955929124644 0.7595416784301772 0.1009462779484432
0.3552232627973158 -0.5343930633819406 0.17446978251783146
-0.45475203910784723 0.5084318495964986 0.048355490735413946
-0.6722906545048091 0.42286608040602336 0.0481170506441488
0.5297624329488966 -0.14671932652580305 -0.14346049907830627
0.5245895149187378 -0.17136987499889816 0.14421395513492513
-0.7846424163158893 0.1423207273708934 -0.020299624603488973
-0.599355848086881 -0.5159498908782214 -0.06196341354299714
0.5317681949519253 -0.7502580337676223 -0.1201142215285075
0.7627627119268099 0.10571247320751326 -0.24824459650089578
-0.7994428791083819 -0.03167542880815497 0.0009089335493066578
-0.6356043225397979 0.5175410064739746 -0.01993247754439233
-0.6997365179571263 -0.2427527628542572 0.054730614386165805
-0.7121332978573278 0.38820076781004886 -0.011795824295286266
0.7358273375431824 0.13075535206701092 -0.2484435130152723
0.29773618731865154 -0.7366928193361698 0.18209220111405433
-0.44553244153375615 -0.5195995739453302 0.05397687053187185
0.22214697483592755 0.8023154719859803 -0.1562394518920135
-0.4831749686937568 0.6462497790637364 0.06988102905957279
-0.10374731804996411 0.8713122322375537 0.05333745068250316
0.4945785696837329 -0.10556998725163443 0.04160164449324888
-0.5848753022745377 0.5817089094733267 0.025417180308637374
0.48133942968361515 -0.775786772368205 0.12055534458824183
0.45414180083158345 -0.6177348704412543 0.2085645303877393
0.3488030516183016 -0.5508264989866059 -0.17833501002640093
-0.43140843448694144 0.5243960470975289 -0.04942102126614744
-0.23511954948024194 0.8375978706837944 0.027005233855380235
0.24694660944381425 0.7479332792285583 -0.17740199891144648
0.5961316364968257 0.34008579372669206 -0.22813793847850178
0.16634437478838643 -0.9011830242134866 0.02416258055402374
0.4043798630268516 0.731659681867703 -0.1787748776298744
-0.7576396570775759 0.20609745788466052 -0.04032267822348029
-0.1983841483556308 0.8275654254393543 0.07646311877655967
0.2853381467874181 -0.47885944321012325 0.05824282481863843
-0.7071505052243384 -0.0861661952740852 -0.034040529622976816
-0.6902317652387205 0.3906353220276457 0.045905178104390966
-0.30895545456953644 -0.656608303691811 -0.10463153583203083
0.041641862641041916 -0.8388092876714269 -0.1262554432688362
0.4946962350911719 0.7926586028236184 0.08483701069393518
0.9011432148460098 0.02973058843755683 0.19869597204904874
-0.21786935073555977 0.6043768501067648 0.043688987024314646
0.836168875154984 0.3878314583094381 -0.16867865690651446
-0.36376914382335734 0.5487230241515338 0.024020582200103644
0.860829335252181 -0.005154168472508354 -0.2240815516798699
-0.4219310153904759 -0.5502285572717237 0.06886066763786858
-0.3905713713700672 0.7440500259385348 -0.05056710986138557
0.3675480424808333 -0.5999639312762299 0.19684289355720092
-0.5904132401708467 0.5528823928563371 -0.049646288446009997
-0.4199348541113624 -0.656019119346112 -0.09163370969903435
-0.5822248712316584 0.42972999122997696 -0.06435224402628184
0.35063040346965735 0.8621888041218376 -0.050467611544037415
-0.13437951988148947 -0.8745463574650647 -0.0007981330508012613
0.022002603110118903 0.631001150682744 -0.09740629436811861
0.36125578035029743 0.6915157145241704 -0.1939677218583898
0.3607223482404458 -0.4762834084169936 -0.14488398998812033
0.2779551554604386 -0.8850480235423416 -0.02864362014225436
-0.6638644045113169 -0.21343081777362938 -0.015125231965445268
-0.37339658406549925 -0.7512603408314784 0.05673207598090666
0.6460256867075653 -0.718603374362322 -0.015480026658573237
0.5212280304230272 -0.006946292561190278 0.10089658697056834
-0.4271935849677471 -0.5951705175585817 0.09002550316738728
0.16488440670153032 -0.6281261106071023 -0.1436755852304071
-0.0998306825946767 -0.6637736968754173 0.10980030127501378
0.014455566117240743 0.6989588984024443 -0.1432990971980239
-0.5854697500364902 0.5874407953319665 0.0023261380219769664
0.2048176040841767 -0.8975368697927336 0.023698715344393533
-0.7747482465739512 -0.13211777379090378 0.03678564811114777
0.6342038226067377 0.26222303227604093 0.2338867935153168
-0.16883083143501038 0.6470310859283104 0.09461826293327084
-0.25007729936240175 0.6643052254526737 0.10750437334889279
-0.443406330501638 0.6901517189795604 0.06527976313055227
0.6491640158195172 -0.21913305308810704 0.23600009879149442
-0.7373167150535941 -0.3245225459970001 0.01818116243278697
0.6718441860703027 -0.09601747235349364 0.23855861418700497
0.2875932989821503 0.54201406261293 -0.1419494421230679
-0.7020483362640069 0.4114208397518147 -0.0007396613050117519
-0.3561964038634501 -0.5507565035363939 -0.017407586633523587
0.9351843424284013 0.2494292900400527 0.1155527084212604
0.5177005282237405 0.1622191952669957 -0.13109478685108564
-0.05921014023224227 -0.8147187581442723 0.12612195309536164
0.9627995223174795 0.24990078938434473 -0.03205087267967439
0.8744130009417455 0.30004378907201196 0.1714252224489552
-0.6107140757565097 0.40455795103765346 0.06430868233079301
-0.330864630806323 -0.7472587589587595 -0.08644798552908552
0.5237929301929516 0.46048631359881254 0.21887853151944767
-0.3827074954252383 0.547105966224134 0.04257100831707274
-0.7629164105231331 0.2576558118845961 -0.0008780591306342981
-0.7357398422930199 0.023806224332204595 0.048090692927181086
-0.6735893357681301 -0.24658459475112085 0.04558099852141847
-0.4997062336085026 -0.5479625502908484 0.08218951846156118
-0.32583903139859893 -0.7626604735925364 0.07720465978051949
-0.2227857289505716 0.8162274552848309 0.07785566512653533
-0.7029645942758194 -0.28837900001928407 -0.05663789756307172
-0.12500100121473365 0.6687641956663938 0.11168688573621767
0.3453507909187311 0.866690232494405 0.03872858514636174
-0.5109014645709317 -0.6649611277879102 0.009499713374536633
-0.46081844829066587 -0.627940526672626 -0.0861210168059672
0.27824997138413027 0.5959345414595503 0.16870537170061173
-0.03274470234782574 -0.6473628039843634 -0.10317371417471688
0.5320647893330455 -0.2798451680489155 -0.18637161067822522
0.7437709985289027 0.31441263806203545 -0.23518197763269771
0.4115905511601773 -0.3623321011772944 0.09995162515007092
0.6757351198843647 0.5244024636272081 0.20333219549249673
-0.5117201891635338 0.6242415844469862 0.06504590812229226
-0.5291786610327986 0.5595364048310901 -0.07875401293500155
-0.2919649596657788 -0.752898514038947 0.09824070954256969
0.19022453685429747 -0.5840579933946971 0.11967795933394894
-0.6202936576909077 0.35586076594548144 -0.05277789117600251
0.8390348647920836 0.45798363291074234 -0.11893572595159436
0.9957143686585852 -0.018521235799466844 -0.04506803348777933
-0.7847271097175232 0.11739743516942161 -0.02687935164588249
-0.2137175397169703 -0.6938095353825493 -0.11814446053157074
-0.643770879286339 0.4688807244180686 0.051273628438456356
-0.02717975530581798 -0.7236367683642939 0.14394341571736544
0.9125488933685433 0.05272139258506307 -0.18840816086798615
-0.11516813677961074 -0.8055762350381193 0.11995131470442354
0.6213612658741052 0.37104116882569926 -0.23438795041132482
-0.07395957196162364 -0.7567302504111774 0.13989146116667958
-0.44620482463527517 -0.6972506726542731 -0.056404878700316866
-0.01663268385356726 0.6035577711025142 -0.01740407294025459
0.34977631225956535 0.4678902076572433 0.12864973147396458
-0.6000992913488531 -0.3352635884112465 -0.003572028947006993
-0.6455672055755524 -0.25667911316952785 -0.014218999510630959
-0.6803609126507945 0.3142564947550149 -0.059213716048085674
-0.6911805477660953 -0.3361105316189699 -0.05712668698641766
-0.14770193048193164 0.6066382310355227 0.013317068796686798
-0.30113972921538523 0.6310755083161375 0.09411985513830985
-0.6286800752894547 0.31490649212449867 -0.03840776567345015
-0.5945632932910448 0.5765226452437547 0.002072933113530182
-0.7127207511439826 0.022306568468992306 0.03377946631159946
0.5130428937862739 -0.06253913732129356 0.08814657943421313
0.7392761533767935 -0.3821852837488767 -0.224231802497621
-0.7540710678467747 0.2814637527417919 -0.0125897855354801
0.46521679087630585 0.7322467162538574 0.1662813195472493
0.13870140531850217 -0.8906506187807699 -0.0665984036175751
-0.13953289981142877 -0.6375227288854473 0.08401699004099794
-0.5371741220804391 -0.548386402808337 0.07805309953654077
0.7506087450212737 0.4453547067432784 0.20154521449926732
0.6458085123218144 0.234474295981769 0.23573794165007414
0.2614992652415255 0.5207612566097293 0.09998465578878496
-0.5103224396473983 0.4428114649980189 0.004330932120611207
0.640036318010288 0.5966634154106029 0.18483741984845847
0.39310502780217876 0.6606734776278559 0.20025512275613025
-0.7253118265307569 0.09638466134622062 -0.04746125378084012
0.181904296791976 0.6116452786332504 0.13909594603493258
0.07970172934853087 0.6577597568847686 -0.13641704561662163
-0.36520770861565455 0.5654203394625804 -0.05704966845791761
0.9678755220586055 -0.20229100157047275 -0.06653189993359715
-0.7136417743485253 -0.07367333097387745 -0.03863466329916969
-0.7033140413665228 0.10734847239914853 -0.033621597062388625
0.4532161284535222 0.3048907816149324 -0.11292635530330727
-0.6962743983753017 -0.07188577883217306 0.007120093445480723
0.542337919822442 0.4764723685867028 -0.2233661152259244
0.06645152306293636 -0.5871393372890293 0.026145733812323494
0.3698431954024345 0.4288266059146286 -0.11227953300507071
0.3042195216839355 -0.5196682279452636 0.13547649176136498
0.9163462280929916 -0.03275712005783932 0.18601599486892467
0.33374808858481014 0.8741089453707671 0.002180139104537915
-0.14547399961083818 0.6334142465743802 -0.07916330260173339
-0.779494422895407 -0.16441819765141188 0.023325539969497766
0.5116171759069643 -0.6284312139241292 0.2044101807529219
-0.6223734161713387 0.5150175382908985 -0.04447827940858561
0.4900806250720857 -0.2128908280335992 0.10914256536710497
-0.6806609421432526 -0.4512214791808631 0.001235488320614492
-0.715873204854131 -0.13633340957707263 0.04719812736114991
0.6429598132178825 0.7194034879276121 -0.027764754934089354
0.5404443518210553 0.7775794322749423 -0.06395730300909755
0.9028235987770421 0.32192528055374703 0.12710684126657754
-0.22693258010833725 -0.8198675266083633 -0.0711996186167042
0.503362437935154 0.0023699299791663914 0.040891451074929135
-0.7827818092003228 0.169210078942861 -0.011997596484669673
-0.08364925870922946 -0.6736684476470367 0.11786291301382629
-0.7226538254914282 -0.062197089442401654 0.043910552567951164
0.39276427158622207 0.5118651112240128 -0.18298465829337504
-0.7520682625183629 0.270669097118453 0.026381548132544716
0.028777778084441635 0.8758849728715034 0.08677371701144007
0.9825007474009964 -0.17562644206932332 -0.01346776459515762
-0.5078722983803735 -0.4614042469675737 0.04122201845710964
0.7015946453242632 -0.28235209930145905 -0.24268809126874397
0.19146452657129065 -0.6215850888868689 -0.14926064950050458
-0.2567997186270884 0.7617376937867786 0.10505197912090508
0.3829994306077451 -0.8590657600994024 -0.007410896971473002
-0.7138395773406242 0.17519781938562817 -0.05071753342363008
-0.3937756668695297 0.7552621898341838 0.02036221355787865
-0.7615615909877695 0.031608367320236815 0.04857312145137376
-0.49383138870520843 -0.5025246115610313 0.06572947304341213
-0.012477166477486713 0.6765314977054094 -0.12872249054988089
-0.1605498744221352 0.7264246786107986 0.12827705726012423
0.14606206233523025 -0.5808690763797566 0.0871490453216292
0.32623431482745197 -0.47141054748922256 0.10762081397354308
-0.07723679652138563 -0.8879456256523309 -0.003184661382570913
-0.17244305589522815 0.6045957020492233 -0.01765979851080945
-0.7044882262853034 -0.06359084925383424 0.02686708770707251
0.6115471186645155 -0.1659091253442015 -0.21732734460413108
0.1038294724485373 -0.8280147039884972 0.13873475142307873
-0.7138076758695285 0.14771331048527445 0.04762229251737365
0.09187611350480457 0.614054242555884 0.10241438725209638
-0.3918623967005608 -0.7043369739573224 0.08450806971988313
0.7742576572597606 -0.023693879133519075 0.24873772632266375
-0.46557116797212855 0.4917544636687444 -0.03604602367545576
-0.6535414338845276 0.2586150083227119 0.032056937032627124
0.4000071432351575 -0.5426701552234681 0.19511407161165945
-0.31290634129559025 0.7314058554110722 0.10086795471041823
0.8254547351008099 0.39795210105309686 0.17308176246035215
-0.19166801279809945 0.602372695426203 -0.02073539480265278
-0.3993487847086438 0.5478141657241733 0.05570224950289949
-0.5467606203317922 0.4726201633238663 0.0691585323845287
-0.6716386595142845 0.29678872949414153 0.056384622579396804
0.7039547194122051 -0.661820629259872 -0.05403089882782916
0.053481045514173646 -0.819328963190461 0.1394459870470706
0.45898143318396617 -0.41860374832923575 -0.1831289459078807
0.38180780879364973 0.8517354553252708 0.05301153600717142
0.3796313510092725 0.688198101815685 -0.19501332086548118
-0.6373331537998673 -0.3057168882563453 -0.04146890366822495
0.5201586307678356 0.46085715108832187 0.21800510718173016
-0.5458415000818893 -0.4611884637929136 -0.06453830031923179
-0.6989150201755654 0.04442954224818557 -0.007256451971507919
0.8158449174834002 0.5241573848340454 -0.08089581779644718
-0.7320617450429104 0.2282651371755874 -0.05187318250906046
0.5122303052339767 0.5010071954880174 -0.21894313770900403
0.188948921456834 -0.766433529164353 0.1694196122485572
-0.7121273479525226 -0.18112921543161853 0.05086354179596701
0.18380232644077396 -0.8146659349033465 -0.14945763030101009
0.5896693514759208 -0.004024544575115362 -0.19182628168637975
0.6463472380346695 -0.19073027287345368 0.2338403853769773
-0.388774957874675 -0.6600675979099265 -0.09794288691805797
0.2078055881016612 -0.8927266261405918 -0.04540915587752133
-0.6955309604704344 -0.42155822781093877 -0.012230958896480947
-0.25413150481182395 -0.8325621582975361 -0.008809381801942398
0.27331293488884917 -0.7868073942571079 -0.162923526091728
0.9520047658360948 0.2914154433967846 -0.0024310838805009427
-0.6564500043781468 -0.4742207841948998 -0.03426210565060141
-0.7998502812845083 -0.016392407072654328 -0.0005249673908290388
-0.14703184297279734 0.8522227367482401 -0.06713046852352597
-0.03160448921909979 -0.6382276803208272 -0.09339090853451143
-0.6918393289163572 -0.4190476359505795 0.02631173914283231
0.3898692554262891 0.3528986884845912 -0.0014823369434890097
-0.3869920389305955 0.7216304821912135 0.07625775343710328
-0.3554757986934913 -0.5581807111210556 0.0385295651419908
-0.7774546520502631 -0.1618806577454363 -0.027694768180422505
-0.5759792100298572 -0.4252167604090849 0.06063415864012854
-0.7158608526018726 0.1463058157856637 -0.04829641731968077
-0.6585769827073181 0.28877658566376097 0.049580741555356016
-0.7129767183029351 -0.20223647133949327 -0.05305471929266961
-0.6277978793650202 -0.2885879899419181 0.0032788651615438757
-0.7835624429635931 0.15486922039503404 0.017879773405483673
-0.050892417344985716 0.7705894850409785 0.14167059308705945
0.7810577039166424 -0.5901703549546006 -0.019515653361478518
0.48416953540251917 0.38744068797029674 0.1874758355391501
-0.16670690589585457 -0.6071635900193867 0.027748458052597354
-0.7560196566105336 0.09771241140577874 0.04931211651147189
-0.49351151085292444 -0.6695886634493294 0.03909835450389334
-0.5208681906607565 -0.43959519489503335 0.027059238091900976
-0.14091020847491514 0.6656363959785416 0.10894937914077574
0.5660575165238421 0.7608249058912604 0.06817003287174882
-0.5636559767672681 -0.4052679316460125 -0.04029689953334165
0.5121143342292824 0.5067881641535682 0.21909998374721892
-0.689293007678175 0.14115362072126852 -0.02354203703637503
-0.4224061441365117 -0.5515287792975629 -0.06998625825184322
-0.7180450634219191 -0.009108706662990535 -0.0385146132383344
-0.17430180562594905 -0.7676007252008236 0.1223427407358133
-0.6404784230398348 -0.5146512648801568 -0.007734440504236181
0.2082069174648768 0.7069188017598695 -0.17777391328206904
0.5121561315853547 -0.6429175105335427 0.199734480594969
-0.6148165969894002 -0.3647821755195929 0.05350657872665123
-0.5560447329782511 0.3983214792567925 0.01906640043775641
-0.40416178613488296 -0.5938975743683876 -0.08824317278624709
0.2970817136203134 0.4630802894449079 0.04108230744792177
0.15929200336817945 0.5518047420879378 -0.02705644501611168
-0.24416247937737015 -0.7289018269220882 0.11674778931611855
-0.7368702725440387 -0.05794328160248083 -0.04912266495538972
0.7487174759157061 0.6198189062659359 0.04759760700267539
-0.06007470900844848 0.6077617471412968 -0.015743246217261496
-0.7706603353916966 -0.19782587373348104 -0.027209197030074277
0.7406870176754079 0.14448741886130384 -0.248106440533922
0.6167530379553235 -0.08184321750186271 -0.2138295942083911
0.42521397624665247 -0.40201154039074904 0.14969941562596104
-0.5665633464671034 0.4977230418963451 0.07475823245760484
0.529445594413144 0.2470638786437921 -0.17443023263488766
-0.34231841913613387 0.7368868380051306 -0.08790569989055366
-0.7833572777220651 -0.1683570188683409 0.010110890704498497
-0.71222864019295 -0.011975300448296318 -0.03289882106856523
0.908498306756022 -0.37828942248321856 0.06253019131048917
0.1049039622490024 -0.706970938147995 -0.16085245151808877
-0.7234952513182943 -0.3654587002475477 0.004704331148184422
0.9136847830473452 0.3546766630807802 -0.07878266818012943
-0.5897901441765511 0.5333075537695788 -0.06091686477726109
-0.6058978330182379 0.5212524935659204 0.055479836165865735
0.5600753422404356 -0.12410176863788172 -0.17385551865907703
-0.6898544177557274 -0.4343129341196384 0.004972117902276422
-0.5253125074999683 -0.5977917893756731 -0.07039927633746021
-0.6007183791992956 -0.5434450962079851 0.0463146974920889
0.8773080349650864 -0.45572885713093525 -0.007783518908855663
-0.7908356767493031 -0.12420849800208478 0.00832194147180933
-0.2756311225039645 0.8073898046328182 0.0566854737136079
-0.17974862438977088 0.6078314116641352 -0.03614456803750664
0.18957112228691336 -0.53389788963472 -0.002345038957335376
-0.21233538917369388 0.6773360152528448 0.11317188248411778
-0.7756431935343302 0.13019289467123935 0.03616718842743363
-0.6698415783295648 0.26772466935126665 -0.04944835720015861
-0.721104204824583 -0.2987755880771121 -0.048849699424418296
-0.5809025434111635 0.42592753974672654 0.06268383539614819
0.2771184292776547 0.4856738773646909 0.05838219864984316
-0.763952049458091 -0.15092265967835022 0.043226483713574286
0.6112445496073471 0.5230924112165272 0.21930231598181252
0.46059924528097723 -0.779962048172464 -0.12674229120637528
-0.2948829029280548 -0.6081543006134611 0.07629004964342354
0.15408864797974142 0.758345798910218 -0.16823106931455314
0.0789973637324723 -0.8374045654133447 0.1307764305177299
-0.18277746473946627 0.6024656225461975 0.01151762563694539
0.8008595333332362 0.35571232462809266 0.2057109010674663
-0.016403354377303014 -0.616501424239891 -0.06281305006815736
0.5342569704018427 -0.168488302055334 0.1555008414096092
-0.5896945993958521 0.5824224124900895 0.0019510149579109468
-0.421906707154967 0.5213390186269223 -0.03594310966794172
0.5812338992413583 0.2002721371684394 -0.20375233113088884
0.4749179341022792 0.7467956680418002 0.15247733322703405
-0.4853772269624622 -0.6359815652433471 -0.07400017601723899
0.5061637568282406 -0.6014149517267576 0.2113363402800128
0.09383047207491321 0.6415937108734453 0.12935151017987953
-0.7831142271465936 -0.15074923663612275 -0.020689642584581235
-0.26742997060794677 0.6756978620948013 0.11077433878542936
0.013076310041027531 0.8027734196711999 0.1421090081376793
-0.6186536090203398 0.34886036792818315 0.04872991907986542
-0.5659479529522288 0.4597526571487775 -0.06931732248615849
-0.33062234181686956 0.7956699776594226 0.0003995232828613796
-0.13341530989442044 0.6399630547103125 0.08674370666244012
-0.6988020839380161 0.07365131876809271 0.017762604156502555
0.49329634858874627 -0.391477690658947 0.19410586547452846
-0.5773516277338797 -0.596669977848982 -0.005544392142911349
0.6851074903338054 0.5363219283228662 0.1946979317366911
0.11274734572649839 0.5760199345133541 0.04523890160375449
0.42976809971449914 -0.5066887198067543 -0.1968832279353029
0.44982799698060294 -0.7574056306272529 0.15260512420041575
0.49932218858903976 -0.061940478426376566 -0.03442405450099002
-0.7309462140946534 -0.1256569848209463 0.05076655910528311
-0.16413766688502493 0.8446380671503583 -0.0703163602810532
0.40665394693110535 -0.7980838396436464 0.13018559665596835
0.894886724268511 -0.35648198759468536 -0.11624834803887814
-0.44406682238675743 0.6775886457724789 0.07378327216535631
-0.5109869173326022 0.6119923168312127 0.0717326817756135
0.9366834676278861 0.32018437277582557 0.047865009011014696
0.09808721695514591 0.7048123325919897 -0.15921996124703605
-0.673902577195191 0.46252921316925355 0.005076119244916005
0.5094719274288455 -0.6774721400405195 0.18602575404329544
-0.6748092212414013 -0.3235882893247872 -0.05980915376201001
-0.035825393640951546 -0.8421966075161612 -0.11225792024816213
-0.6126152503129767 -0.37325578694729394 -0.05575523406938918
-0.5266634919381213 -0.42779786615865506 0.011361786291877117
-0.6032838461736048 -0.417852366106251 0.06584411850572212
0.3228550396744311 0.7988432520017035 0.1506209498666242
-0.6724539875960722 0.2216775125803375 -0.03561233214673333
0.4790561789305325 0.16758464106188542 -0.030525672871568182
-0.307073014571205 0.5993126363817344 0.07093628509828678
-0.028390694008345173 -0.8133735345373738 0.1318576027638658
-0.05127324307958842 -0.6559450806646713 0.10839237382038173
-0.4220060745841969 -0.6781599692499349 0.08405600352902119
-0.7829658692942252 0.17549150497116123 -0.0017459213394447714
0.17779854456247068 0.6953828649839086 0.1717708824448143
-0.7029064091415195 0.35196338954886597 -0.04865191662623938
0.5925682024931556 -0.14949792175921456 0.20422246722820767
-0.042315404184915556 0.8918516598955091 -0.026327193606271868
0.49027370921406543 0.3654023230399359 -0.1838220964080617
0.3604760925245431 -0.8562633937580117 0.0598958335279325
0.3343418127729541 0.8447450269305834 -0.0988503705786139
-0.21046021171182183 0.624235302489852 -0.07490879988385102
-0.7818786100451024 0.05679234450592767 0.03707458500993261
0.620070868703717 -0.6066055899593722 0.18778059385358975
0.15334816736723686 0.6688114002731876 -0.16009151223142934
0.3873635579511883 -0.35648944930576953 -0.0028830997573232207
0.5084487040966633 -0.07455879279778077 -0.07888195545333758
0.30025507702846516 0.6011753223591253 0.17836694897737018
-0.7068002390185552 -0.01852567771690236 -0.025654025268262257
-0.5018783505207485 -0.6729672136681816 -0.011323095812967471
0.30965348487649036 0.8466736934471476 0.1050012726306048
-0.7650955430044475 0.04552319619667183 0.047403872063510606
0.7715854407553489 -0.5355766623066252 0.13445653497479443
0.7351854674943432 -0.030534315218596963 0.24951121422483555
0.5175939487943679 -0.06335945449422285 0.09949077800181143
0.9341913706483408 0.3319451107699585 -0.03697102924680332
0.7072377510963224 0.6421290642602232 0.0897891447972684
0.37021734897293485 0.4382099782280583 -0.12219134729593698
0.6469259045496362 -0.3657673713435315 0.23695126659449167
-0.7530856809543292 0.10142503520646982 0.04992560707054621
-0.30929143346872273 -0.6479678734446278 0.10202228507552517
-0.00963951669039878 -0.8121776265864591 -0.13517469332967763
-0.6048960712987883 0.5011861426136498 0.06375617731897229
0.6508310072865219 -0.5246597456598824 -0.21101171058969426
-0.5115215733353112 0.47178950520552165 0.05404950005478897
-0.7219356184425567 -0.2640490741084783 -0.0528722238660841
-0.7535727336294387 -0.13045578757091258 -0.04929724876394337
-0.12984036811331381 -0.6763960099895288 -0.11596435393868733
-0.5738986468253455 0.5113411065287549 -0.07299119784908384
-0.42516827109829486 0.7350096598330526 -0.01267402330505524
0.30919728668695384 0.5955608302818169 -0.17947627147319292
-0.4830123243457495 0.6506849945360027 -0.06728611989116613
0.7327183987993091 -0.6194618817767198 0.08577895808418606
-0.07616384319638253 -0.6099310839045651 -0.02492982281437192
0.8371594941219027 0.1717752805221563 -0.22481629136630782
-0.685705064823216 0.1569814977174967 0.02431377854779348
0.713459646988248 0.46647501652733414 0.21005811163391072
-0.6926555977681218 0.42656769277868106 -0.013320011306357623
-0.6862571077308353 0.3087921520447618 -0.05875222985745358
0.33455320643755604 0.6249820843093665 0.1928614986554157
-0.6930299989610134 -0.30611830148245794 -0.05802713096831765
0.20006285171596683 0.6204317290958288 -0.15173396717230975
0.33665461253709283 0.8635893721431844 0.058530537806319075
0.3975184475155991 0.388625380926606 -0.10676658477605058
0.3072608542543547 0.8770452338801913 0.036878284146101906
-0.7409688812557889 0.1364009493168439 -0.0515391988993182
-0.16411216507069304 0.6420211181714071 0.08975603793373911
-0.23872797770053847 -0.7195102077892168 0.11823308482241164
-0.26267191432705 0.7679929237235297 -0.10017698178161576
-0.5491053530758497 -0.44668548873750386 0.05889356684636494
-0.5428581762442957 -0.4977898907438444 0.07509922919924245
0.9374466889096267 0.20244760960699226 0.13294119012749597
-0.6058860611006374 -0.4466058236746601 0.06945239372058983
-0.6381620328216516 -0.4883201931548991 0.04597153392975239
-0.7993008868771561 -0.0008549427120635504 0.008329657237953675
-0.5274649622599334 0.4637558588800266 0.05778365688504595
-0.5337396390759013 -0.6017145113969735 0.06359781093458093
0.3318410148061285 -0.6362915176236273 0.19355258320642604
0.23196260075921976 -0.6452704757251702 -0.17221541102149035
-0.5020104088737252 -0.5563403323991316 0.08300490652087957
-0.6862849121542622 0.1291222192917827 0.002286102164431365
0.4922311691701631 0.16725239931231245 0.08312778978016937
0.505206618762816 0.5273542679045609 -0.21829083680608657
-0.47531949549004093 0.6271098004731152 0.0816482999887266
-0.5641462088409794 -0.6115890704887375 0.00497735681479193
-0.6019371768340386 -0.5674095134175169 -0.001748439694286898
0.8931563434316198 0.36546811146440245 -0.11220795678749389
0.20971585328595194 0.5785490471134562 0.12555484302916622
-0.5386872144325583 0.4157787824073611 -0.013608954569509711
0.010857836712782067 -0.8542115271401817 -0.10958322795380562
0.1843677897359521 0.6332237254223858 0.15323490568911433
0.0956585726415323 0.7987803727410273 0.1524455642705836
0.7037735872324924 0.22553293981337594 0.24498404896585052
0.5820091337180282 -0.7528147665170724 0.06296076550870111
0.4339120149850228 -0.7795535441594333 -0.1387120379765163
-0.27951918875415394 0.5916668397408249 -0.04863015485843073
-0.3483278059423407 0.6823320418985599 -0.10328503059695646
0.7492460166884616 0.07473992881201791 0.24948853156745346
0.33303260343669994 0.42385632957997027 0.018654578095000908
0.48236869227777085 -0.248993757909073 0.11891006384414225
-0.12864582445920267 0.8002921972701168 0.1196758576346392
-0.7952655311602892 -0.023029697767377087 0.02061385777466491
-0.24435012580895984 -0.8117844189037045 -0.07159894184317236
-0.3837679759864414 0.539779352746412 -0.027975683945792904
-0.7744124910015121 0.1406540003052915 -0.03589536830740353
0.2376592405840528 0.5527272779890914 0.11791733689254125
0.13839476999503036 0.7124286363800916 -0.16732061197585313
-0.6856004909674506 -0.40800118926492196 0.042636398461998924
0.7444951778663098 0.46227847840527636 0.19809500566231292
0.7354198278259553 0.08584194354424848 0.24914125290750383
-0.11253554799915305 0.7391661939080374 -0.13492889569289537
0.3587307319445818 -0.4621567026036711 -0.13207709943096516
-0.0011839005449018898 0.7259555227148304 -0.14789527270205452
-0.7817044537199225 -0.10937904706501266 0.03242481974641943
-0.7339911609376584 0.3092853740545467 0.03441980470385178
-0.37785033000410184 -0.7186378481346043 0.0828886095047464
-0.6149909809756032 -0.5504839080474155 0.004130776077923089
0.8921130759139198 0.28989531193684864 0.15722621689576324
-0.7360588569163343 -0.17114709807409983 -0.05228919162753328
-0.005250032952581628 -0.8140392828022489 -0.1349212392227729
-0.31792598555226254 0.7304421822713547 -0.09972726808443362
-0.280370282413516 0.6396261137361929 0.09696833450113378
-0.7208614038957701 0.0799639362884356 -0.04416337579178693
0.6684193561610698 0.1069164816752218 0.23776610594035602
-0.05203396597931616 -0.8881192501476722 -0.035771378465074284
0.30266663890399353 0.4533825047633222 -0.016316169216782524
0.5094996355942936 -0.18573451136050717 -0.12795491976907397
-0.633802366072418 -0.3512446089304244 -0.05715272571564332
-0.4641732472285548 0.4887568190054984 0.02853657511998099
0.4861598479434564 0.810151794198844 0.05125113576611232
0.5034204520982114 -0.012809060860973255 0.04198422036505855
-0.34239400203154297 -0.6280564770049133 0.09606780842942951
-0.6985245174321907 0.40388605787998666 -0.028063845193982494
-0.672501810649537 0.41389962136500763 -0.05128842209947611
-0.24255196615225877 -0.7790823406566539 -0.10057020226821578
-0.6178060397436085 -0.34839536844128716 0.04792589637771824
0.2778165492475416 0.8558684316585825 0.10132476901127957
-0.3271303854423519 0.7537403437819296 0.08369492753110563
-0.4521574533259637 0.6277108200957706 0.08845619749139796
-0.7377153096674108 -0.2785280905575197 -0.04123703744811815
-0.6181930940866163 -0.5342108706986426 0.03213198854722392
0.21962575350059693 -0.8727852023937241 -0.08898407996460647
0.14748837021175354 0.584888805919276 -0.09424610053443581
-0.7160306381339706 -0.18568235257031568 -0.05219810084743349
0.4860314882773546 0.47584259256773564 -0.21016328446592117
0.42920169143922354 0.677944699838816 -0.19663208594542095
-0.364584240591351 -0.6777747514431272 0.10073638479217735
-0.5394405096370647 -0.6232748252232823 0.040370304977215096
0.7910331114728649 -0.002104111479533416 0.24660875332583215
0.08661714280447042 0.6460090938928646 0.13045360425771335
-0.04442025160453677 0.6371745458925678 0.08988319781991407
-0.5440674792747209 0.49299328392730074 0.07423419943702576
-0.6339769692610967 0.5121317864482029 -0.031477925059178576
-0.740752220689663 -0.2984242367000194 0.030239160918031225
-0.43729512252383185 -0.6245110844654734 -0.09180917866441012
0.8661828157516137 0.05544986819983455 0.22019155426063933
-0.7375899720817528 -0.3069509993999258 0.030565241605566482
-0.06621163682794677 -0.7681054728479881 -0.13985066366492457
-0.31397305589977254 -0.5712540227995203 -0.027146678910241934
0.5028040186350828 0.6919191752221138 -0.18027821464579624
-0.7010508241972482 -0.08208820301429293 0.024864652807291852
0.4821511988571703 0.3001917420728689 0.1484493294479568
0.7805220265105522 0.3024879640152701 0.227118865704642
0.4890766493983075 0.5509428877282292 -0.2159782310853991
0.5311682016527609 0.12217059655274537 -0.13865192963291126
0.34145553315581245 0.4137023689570022 0.005488157847592264
0.5086211611161343 -0.46115683734647767 0.21491429624842162
-0.49423299142781385 0.4893011031199913 0.05707515166840405
-0.41744270931260485 -0.6423120252420613 0.09414946390936899
0.47220189381708877 -0.42162384883300796 -0.19173548184382153
-0.5877608623262058 0.38579317687571657 0.046968085610049
-0.7239556893961889 -0.3558826393920009 0.0203977778775322
-0.7683882838690236 -0.1982832605548702 -0.03049293471156325
-0.35555155845823877 -0.7689048415592012 0.0472832805125399
-0.6815271036453892 -0.2814094566457591 -0.05616027292867461
-0.6748894042456607 -0.4100089991847747 0.0509009801256323
0.23985342435933207 -0.7607354818769638 -0.1736505312028162
-0.311473434442237 0.799191811110741 -0.03627842249467948
-0.2586936524333158 -0.6752079200813116 -0.11100246188450921
-0.25161044096023544 -0.5877711181568477 0.001309861848632592
0.6015941194431614 -0.41035435641689777 0.23158966264028658
0.12365655190345862 0.5763449277777781 0.05882781069025554
0.2980314495820164 0.49022656310406176 0.09851563139853112
0.5029323038910704 0.1023953246179941 0.07381326178765314
0.5170795425210837 0.41058973909120794 0.20994139647007473
-0.7963991438255662 -0.04698648806500823 0.015299589747072151
0.677451417696575 -0.480000955059339 0.21724046399738153
0.9511642189851424 0.283895906443388 0.03950367343395914
-0.028806614568559836 -0.6606958505984812 0.11553652577498114
0.3379256672783925 0.7536420645909518 0.17516277545094588
0.47799600855378555 0.40182321063489057 -0.18857699818839405
0.9692706978944354 0.12592485894803035 -0.10181255458594994
-0.2743850684257715 -0.8236127045037195 0.00809733470550873
-0.6706220355117296 0.18750552331749998 -0.0019556635068931926
0.32319852330412147 -0.4588492049578983 -0.08639830887182691
0.06549730497852534 0.8281913429235706 -0.13565527215993306
0.5157523487996163 -0.7919736253450133 -0.06150982660299081
-0.5699667616627516 -0.3937146281823163 0.03614173858830059
-0.7748896962764595 -0.004697562321299548 -0.04335871046198709
0.44666121258939445 -0.3880228952068625 0.16055185717256582
0.7457865666013275 -0.21478662763552492 0.2447062219053714
0.9824374337193634 0.07822653160287985 0.0828251268619542
-0.16286728003754 0.8629843694900796 0.028989274213996313
-0.12724285051418535 -0.8519209501473499 0.07670117870603188
0.3951737611721789 -0.49166307226232764 0.1760901181502922
0.942819457395874 -0.21381769074102902 0.11951000471332288
-0.6380268260531526 0.4607958520649534 -0.05814329648680702
0.16517516495576834 -0.6935262762550446 -0.16915320223766664
0.70919260422935 -0.341894259762268 0.23716302666078326
0.2011258170684788 -0.5421341657782022 0.0681389546705516
-0.4623098874291263 -0.5425826132599552 0.07660253812401843
-0.20090658534420858 -0.8530435652870236 0.013250242736735375
0.48746130619604516 0.41211724677432815 0.19690141375508977
-0.3058167407306052 -0.8085861784808187 -0.0056382117115491865
-0.22609161713861345 0.6313882869781193 0.0850061406331425
0.7772576343749444 -0.49032953872031043 0.16268644510654115
0.7152934799246533 -0.481183964358324 0.20424091692651522
-0.6929865140839472 -0.27303056141394677 0.05672595369353957
0.48890517759743185 -0.477634852035613 -0.21131155062700074
-0.7636181093374798 0.23075839149577193 0.025851843076267266
0.7545572116616992 0.3439436526679435 0.22758988369006625
-0.3816803255958384 0.6046081390416707 -0.09005782012741656
-0.6594709115274758 0.34181547061978806 -0.06079141051351597
-0.7502021101856399 0.0381476931820105 -0.05011534734904157
0.29386788557772636 0.6124275792434863 0.17985868672686092
0.760269338215396 0.2129577894090202 0.24310042902269477
-0.5319066417987575 0.6333451702073922 -0.0374447512504124
0.6439714058270057 -0.11052252980036865 0.22901412051852638
-0.6831156444137203 0.3997547375582305 -0.048327545103372824
-0.28674478464949577 0.6367480744783599 -0.09590775556699853
0.8240615686557808 0.16877425042971245 -0.2305990101258251
0.6126883775860789 -0.7012837660866591 -0.1171460938120079
-0.07103443406368043 -0.8543995402679686 0.09251801623842389
-0.36244160989742324 0.7655701767683843 -0.045596414323634475
0.6539469938742284 0.17755008966884347 -0.23564096804713666
0.2832815949273598 0.4925038912439952 -0.08293866532646028
-0.16146024364764608 0.6879747095181291 -0.11954025148193194
0.6925725843251338 -0.04307655482175439 0.24342887732307877
0.5503614024254823 -0.20167250592310765 -0.18065742111507546
0.5074653594628377 -0.005910833920024505 0.06074745294277243
-0.23375217082178612 -0.6247530745180703 0.07959012340297252
-0.6688580882944408 -0.2983567320344212 0.05596740678762259
-0.4675472701453571 -0.6869065028282698 -0.04729018913806616
-0.7290669091307524 0.31172189724380256 0.039097414406291414
-0.5765679349682059 -0.3959162610430979 -0.044788359180777136
0.2181633574271035 -0.521250698913162 -0.03703984344263045
0.30384344326676566 0.5466779501278364 0.15465944504958115
-0.5127520728630864 -0.6571897261586442 0.029127972143159604
-0.5264789190415928 -0.4274703809561088 0.008781481221373271
-0.5668344883095509 -0.5532208343145608 0.06620623036454273
-0.5809530913016933 -0.582415976397842 -0.03203529807974449
0.4432732247413538 -0.2665254443377741 -0.03705805915578752
-0.16705456024428025 0.6619998915680138 -0.10600054966320192
-0.6755922536931991 0.38930081317042564 -0.05594665253920454
-0.23437723286990958 -0.7752756054348408 -0.10518804935096826
-0.5584930536075069 0.6158015396728128 -0.01558829695801797
0.6583603714773276 -0.1209351528554845 0.23490341648656465
-0.5367382395723793 0.4778143951985203 -0.0684526906579026
-0.6153578041620533 -0.31057532423625933 0.0014419395044096986
-0.2813792063192199 -0.6199151500000476 0.08377470939571426
-0.6544749671316643 0.2532715832961999 0.02989066392595346
0.4188844823091877 0.3998179239829544 -0.14218303875839697
0.608674686067753 0.15256836435520355 -0.2144842537733452
-0.1424013354765667 -0.8719841026758541 0.009641237974619953
0.33909356259076234 0.8525480059136233 0.08303068267229244
0.5492506169308208 0.025520292881917227 -0.1496107453345699
0.5144060366516732 0.03248531537810397 0.08589473706179812
-0.6984993032228806 -0.4014236526401738 0.0301952902869608
0.5914537953881085 0.5661303654168908 0.21134503798083823
0.5597665652212944 -0.5791814808359205 -0.21236922911154843
-0.022892270567293153 0.7334794785415274 0.14598841499354798
-0.6678629875602076 0.3210400420376192 -0.05919466052175692
-0.7003821383027844 0.09897038219632318 0.027919290489714768
-0.1356380027713508 -0.7299691382600675 -0.13151562592309887
0.1967019719851877 0.8782141209667913 -0.08392067259585252
0.5007517607799036 -0.018585947015207202 -0.02264239788934211
-0.7571830890094309 -0.15781802521999183 -0.046525969167550994
-0.32285607784069986 0.5839254677143967 0.058952990960953515
-0.6242988704135667 -0.5177067437912314 -0.040098089100958016
-0.10555007864550675 -0.7757918892998013 0.13248536475600647
-0.7723749307970024 0.2228939080540195 0.001714248239923103
-0.6105655709914234 -0.5123273979198613 -0.05634133940884923
-0.07298679326031964 0.8468932542890806 0.09995657976127009
0.6817622435089999 0.48601215587046676 -0.21434570776467385
-0.35479535979032567 0.7745576607057206 -0.036700480190380705
-0.5319157878861245 0.4442359347036895 0.046028931495539174
-0.7586315339051507 -0.2710495002979824 0.005075574390127464
0.8344223623733517 -0.5032130740060969 -0.0718402663150465
0.7790244150735142 0.49403740774922245 -0.15880993164136525
-0.043735984573235756 -0.7187292793235962 0.14077723820860732
0.4025137762441713 0.33554104536042806 -0.01949447893371036
0.6838400725707307 -0.13803541268731653 -0.24243150533018262
0.3638595431847106 0.5908088010587773 -0.19450098943990116
-0.20047240830333482 -0.8227650006033594 -0.08112489189515719
0.44227793454383024 0.8231432023913234 -0.07015755553123638
-0.6469699464606249 -0.32862592934810625 -0.05575651029277886
0.5021927365910483 0.7938050836330521 0.0745310717541622
0.5961295182985585 -0.6550574261572788 0.16972438030788603
-0.4928065626908613 0.47828954498861337 -0.04604771846283858
0.07580672096802606 -0.7454749391515703 -0.16011529702048305
-0.1919601252626816 0.6679596822479239 0.10932196953823453
0.2306928770998657 -0.8588829570750748 -0.10744057177234079
-0.6828340851747454 -0.2944198712282753 -0.05781943197567381
0.8287920894645788 0.011301000257857853 0.23722354935388573
0.41667730641007433 0.5637395078968092 0.2036301360561307
-0.6827133761632929 0.4119605833877373 0.043592067092164816
-0.7739913146163636 0.21625657222580388 0.0023976647014267096
-0.699455109268551 0.07681204200043101 -0.020315754193787467
-0.7230911066317411 -0.1640814615407475 -0.05178197600077554
-0.7553245345634161 -0.2644049006531966 -0.02380082304666867
0.34300862836667284 -0.44623143815789773 0.09728576139666147
-0.027941724468447983 -0.8880763593334968 0.04878348454657497
-0.2978123014709166 0.6677167040367251 -0.1076230106272438
0.5385415635052538 -0.621064764802052 0.20311611048913106
0.5907905799745152 0.7295044923086379 0.09860598391186531
0.2893475234506995 0.4685979196433188 0.03625302744177202
0.0165979378095353 -0.5976160494077247 -0.013780623293171859
0.060823373631856664 0.6163505184175421 -0.09204201066496016
0.8630655710589361 -0.21403039272653085 0.2041071584357521
-0.752921694308266 0.06672804417640452 0.05004702817862139
-0.5372525828506265 -0.6400577202583143 0.0031142610065830866
-0.6937836955668579 0.08977494352417656 0.00632285726185354
0.3045830927775701 0.49272768014751134 -0.10903908394221275
0.9227547228090363 -0.034903331736844914 0.17997680925738138
-0.37377068939178243 -0.5923881725360638 0.08296769767711738
-0.40108725724827365 -0.6933531821684913 -0.08592939226523054
-0.7682416459535988 0.0017920588940241048 0.046553123419024185
-0.4438133328672877 -0.7131227260055757 -0.03673702803530643
-0.6718174117568335 0.3744744625697534 0.059659161235618284
0.28243666697566855 -0.8747687213240178 0.06341551054016348
0.6033926334653695 0.1844746427757608 -0.21485903436828002
0.17124757225429424 -0.8683755326979066 -0.10211125423468173
0.5379329501561715 0.3946805826301253 0.21524713901690481
-0.5403173682613404 -0.4304386955648018 -0.040617802124569315
0.44272112204867387 0.4064177311444191 0.16679280162927848
0.3673055071061768 -0.3985288330144542 -0.06442557842109306
0.07447592165776916 0.8959074736308491 -0.05341922943090713
-0.786433759949135 -0.07583627827422718 -0.030656771070226834
0.5268860123764649 0.3675779260491404 -0.20557281396529178
-0.20200658480621975 0.821241665736356 -0.08211116635720107
-0.5591377843619696 0.39366147289172493 -0.016594931887396674
-0.36078321593134965 -0.5507412565748588 0.02591391959184687
-0.44945936348947674 -0.6000008250318258 0.09004563560966752
0.8096098666233665 -0.15189288510651736 -0.23708369289599174
0.36282228445716636 0.7990137143817306 -0.14264890172031477
0.3870356311606163 0.8196740361899721 0.1124899202949561
-0.060741395873111975 0.6098098695059104 0.028433407654167544
-0.3624333945255036 0.5613059852462559 0.04969360007497068
0.8921584815737321 -0.17168297709506442 0.19097515213662886
