-0.5414301937686489	0.30969253013135295	0.06563218974463551	-0.35432696846171585	0.07013234415386702	0.9324879911957114
0.556607380717644	0.5573189152277299	0.2416956227952657	0.3518174713532455	0.5331558417799165	0.7693954218908229
-0.6380059318095382	-0.05355427845768254	0.030541904882419233	-0.7896726644044467	-0.022991668997173836	0.6130974361788724
0.9451504341071983	-0.011419624814730338	0.05758375888941847	0.9804071045054868	-0.01989706570090917	0.19597452949722985
-0.6356748431562794	0.13930866119342672	0.01682782686526861	-0.8860939550683226	0.1405777152724351	0.441673418670583
0.7187432991331995	0.5520427668409864	-0.08904187358054313	0.7069900634734895	0.6480774077690931	-0.2831266919402768
0.47487003819404716	0.0903579858121171	0.3271978475057801	-0.37494693483960073	0.011894531889423895	0.926969965082752
-0.5509240454300398	-0.32390281914617125	-0.05890448052495056	-0.5723453335412879	-0.18273606841082038	-0.7993924871271102
0.3900114620439999	-0.5798897376054144	0.26593757697292536	0.05032682905578292	-0.3823083218524025	0.9226632957474731
0.4114098772854118	-0.0911512809596236	-0.29685668099754625	-0.5287882100351491	0.04031786195618853	-0.8477956705097667
-0.3373246557387461	-0.4956654049279802	-0.11560610127063214	-0.16585424129633589	0.06785519384025662	-0.9838130123722277
-0.6189173563568794	0.1031207750933558	0.04421158656671724	-0.5425523446738764	0.0685197514037737	0.8372227881253864
-0.6080039197837447	-0.024291999583126778	-0.049395435307576466	-0.11758102161694609	0.017136689330097266	-0.9929154230015362
0.40136071142160534	-0.761825966888414	-0.06847604367703099	0.3104674314753704	-0.9143843108672649	-0.2598293786947179
-0.5063735499062358	0.20286566833852002	-0.026854906408642885	0.7843370207272842	-0.4214207476869197	-0.45521422576150533
-0.6258008766502042	0.13406606997250198	0.0352682228405651	-0.7061338993282354	0.06840810985373874	0.7047660936266315
-0.6425983241294537	-0.034129817093615615	-0.025071002121095934	-0.8291829610139432	-0.042123894403096024	-0.5573878314822333
-0.6094012472283976	0.06054734753690843	0.04919583537427178	-0.2611309638763033	0.0033485626025774456	0.9652975742399488
0.6245425606141988	-0.5890791334673957	-0.16946540457989764	0.5257123038956475	-0.6385510779658885	-0.562031221874134
-0.6023733732191138	-0.03467621981817778	-0.050134743647570146	-0.035567779597066716	0.010315970738216655	-0.9993140216179611
-0.4220063631534883	-0.521006261282878	-0.0786261052323118	-0.5529786510664528	-0.40174593612043713	-0.729941651281416
0.34732191641842974	-0.15361905982360774	0.25532964837624567	-0.6464071763370702	0.11843112082762773	0.7537452036327983
-0.49674999377536533	-0.20854841756002182	-0.007400015149514392	0.8711640058409191	0.4732612187384473	-0.1307558555683162
-0.5750951439786623	0.31690284468210583	-0.03876351694654385	-0.7888700812567667	0.29893175517675635	-0.5369579132901263
0.873348023302934	-0.15411466911070534	-0.19654380398503232	0.8138721399600657	-0.1881913391597017	-0.5497237121155509
-0.42790715371183563	-0.3220588728846102	0.04766596323033162	0.5671288093386616	0.5472637680573657	0.6155219588201256
-0.5548039561575686	0.1313133640595584	0.04502723665610392	0.40979403753974564	-0.17986458034626684	0.894269299223525
-0.5304826100301325	-0.26557995202475393	-0.06552333412671345	0.09219821709846773	0.1776208124021715	-0.9797705526119143
0.5168372765955603	0.3163288531642193	0.32788483167072857	-0.07628216786093095	0.11138780300535021	0.9908449869722699
0.3068422809465118	0.7864582449606599	0.07175398728752373	0.09248068225041231	0.9586398134834329	0.2691784378715112
-0.6167066685577218	-0.07997723363145084	0.04634414422238213	-0.47992302497658224	0.04443372423751698	0.8761846462063302
0.7142727602724672	0.5059045179972781	-0.16782121080350976	0.6393971065091206	0.5710400937697718	-0.5148636241716588
-0.36064567582229556	-0.3641295459107054	0.03554589031569245	0.44105605178047896	0.8179091446451008	0.3694512015053323
0.9289521134912685	-0.06761012718078195	-0.11131522915902967	0.9514359343982175	-0.0674977705285214	-0.30035597831484856
-0.5483880821724163	-0.3373754765465866	-0.057405595046619275	-0.6128582047285598	-0.22458768992374506	-0.7576049039120611
-0.3490424844270794	-0.5559429006061224	-0.10617584665820304	-0.43340217925652474	-0.31418451818384374	-0.8446600733722894
-0.6011442975369089	-0.13353031181516017	-0.05118710860272372	-0.32013718953091375	0.049181536210113036	-0.9460937355121113
0.31284697240814735	-0.690648816971402	0.2087106275258185	0.13092135665180266	-0.6465640706718643	0.7515414166156645
-0.532505746478568	-0.3772070191351336	-0.05707760647713436	-0.6258016995344784	-0.2793757910511069	-0.7282316940605695
-0.5717350339442572	0.27110442601098605	0.05552382922787931	-0.5234267773147022	0.1410223895245421	0.840319638258403
0.4564881816270253	-0.09397956610065746	0.32002061454338476	-0.3639526865450447	0.01331420120474907	0.9313222718280302
0.5726963528352168	-0.36645604255642605	0.316414225737069	0.14199331935267218	-0.26786818049572847	0.9529346961555749
0.9297817628292256	0.17889487787615263	-0.01792294284288463	0.9694173887116351	0.24246095308734694	0.03798174155421042
-0.5847651409495181	0.0021705019887299187	0.047624837204347674	0.2960600890125089	-0.01615084797929634	0.9550327605917275
-0.6287271115973289	-0.01897001366623417	0.04080514923175342	-0.6421049629177066	0.04496975872102846	0.7652966335983867
0.4984925093835699	-0.327484339165195	-0.3253474781150641	-0.10289647760818889	-0.08759817166066353	-0.9908273690293056
0.540932368835078	0.11124848701936896	0.343623674414656	-0.13160191383755918	0.033586911052613154	0.9907334937712741
-0.5324702006695459	0.20399214833922968	-0.05199748860996844	0.39790165565961255	-0.25021132223261094	-0.8826486088189041
-0.5114704578336731	0.23201693935811574	0.05047188480663775	0.5305647459990195	-0.3407023257908405	0.7761591173874774
0.6408147960668554	0.29807737365293885	-0.31859832939069427	0.2534817152410925	0.21550209148272195	-0.9430301525428578
0.7702867211194862	-0.48009504093306943	-0.11168914985373117	0.7378506070148427	-0.5773797480613242	-0.3495841933733132
-0.4410485110891832	0.43527714438373544	-0.09113945709675125	-0.2767144905566527	0.03192484989726341	-0.9604217275108932
0.4109329259713148	-0.41971954314349436	-0.3046774613288669	-0.1964957188353213	-0.058337920947645235	-0.9787676534596437
-0.3317489347888283	0.3876898436369357	0.04946920536135662	0.3706290811327526	-0.7684203334212087	0.5216936604977386
0.4895532051987227	-0.6079323545262426	-0.232137460755561	0.2625538640000124	-0.5692250137129019	-0.7791330773765219
-0.6269875221935385	-0.02428952361487607	0.04192043952194076	-0.5116773310263956	-0.028597197236862562	0.8587016415635296
0.3167053241126667	0.21019169998952048	-0.23928968553744662	-0.6305974875010324	-0.1748417298896754	-0.7561594925983349
0.6421929680472408	-0.5738178048602034	0.17036150242671566	0.5532073633399046	-0.6434695442648658	0.5290638512978147
-0.55860487326288	-0.28109352111067415	0.06094959100429093	-0.5509619176685936	-0.16545158464108828	0.8179649982845838
0.9449477226202705	-0.08261044214174619	0.02475768955009405	0.9883767912235126	-0.11391241179147191	0.10067413277780163
0.345581366751184	0.4430705535102741	-0.28975912031008194	-0.249960200783786	-0.0030635324583176	-0.9682512653196
0.3419777676545097	0.7285398406999357	0.16616378186544806	0.1753412018275698	0.7645591501099138	0.6202457326938007
0.7045897342707031	0.25662246663621363	0.3062378321532284	0.39852728723524466	0.212772899393219	0.8921343478494252
-0.551644856173322	-0.05539027690540772	0.022315004343554115	0.924774754454194	0.10226261063488731	0.3665160460202557
0.4977708193543935	-0.4702902374435132	0.2971710877028947	0.09598770580348195	-0.29274061715323335	0.9513618088841533
-0.5083373235087298	0.21621821152443307	-0.039688629419428495	0.6654280096318604	-0.41245692591310257	-0.6221614326392255
-0.4176451754817724	0.5581849119706718	-0.051911726255796015	-0.6481310757217508	0.5907550400694268	-0.48055654330820996
-0.5981671519407203	0.14828029243089258	0.05191639747009561	-0.3092482358613704	-0.005025995886471846	0.9509680688550901
-0.3933984521278651	0.3481846478674797	-0.045986340237486274	0.4691135193532225	-0.6604307016475577	-0.5863137336625753
0.6158646849083048	-0.6224967680818063	-0.13166685079183532	0.533037849507959	-0.720342426572624	-0.4438214049270207
-0.4820531089860449	0.24871823297770804	-0.03368757278998957	0.7376918368046639	-0.5103042456616259	-0.4420410962472605
-0.6356420173137973	-0.04092610399157891	0.03413479150035663	-0.7743647156221481	-0.022331315985168285	0.6323453166789489
-0.46997124650100347	0.2522268523029133	0.012748645744877439	0.7835623519428356	-0.6011976339518403	0.1568165984471035
-0.6312605351068397	0.09767034329382981	-0.0342964232030139	-0.7357167607466866	0.10694642034389809	-0.6687924275378935
0.4785427457005726	-0.07727291240359585	0.3284454938453648	-0.3398800177587942	0.023633337671785513	0.9401718134887757
0.33500167484022925	-0.1641310705230281	0.24600447362659905	-0.6943582802763403	0.13061560655500232	0.707676580039182
0.42600542382051654	-0.5761856051403219	-0.2646405355830423	0.10886294027303521	-0.42035108059604576	-0.9008073208388387
-0.6320556541851328	0.1628861232062136	-0.014802051997142785	-0.942463433864908	0.17963595394588838	-0.28194609392136794
0.6721728168003693	-0.47116517488150705	-0.2354553915606706	0.4893967736773762	-0.5125803725553812	-0.705515527529452
-0.4347860969198482	0.47646773943670984	0.08804548491083171	-0.4209701828233945	0.2067915502252547	0.8831881792285685
0.39169924607969864	0.16035148779973685	-0.2890629627485259	-0.5512864054908813	-0.07671424470693691	-0.8307816944179663
0.4174173043462949	0.76107995578297	0.047057131115156345	0.33115346100944665	0.9178478634614683	0.21884397364488506
0.6538470004235646	0.11741046106018832	-0.3416393656505123	0.17908046612464168	0.06814590542309931	-0.9814715086168561
-0.3878630230976183	-0.47629695657053484	0.10431483784312165	-0.26273359889815445	-0.00041928949125301374	0.9648683227292448
0.6555932877952257	0.02329630556821654	-0.3453939594030572	0.15118643915539448	0.01414005874700975	-0.9884041275481117
0.42553346205022347	-0.04080019733055737	0.3037428136155635	-0.5140343269768808	0.00425874676456571	0.8577590417858741
0.5111324150162576	-0.7172642052233436	-0.05980140351894267	0.45170639459593964	-0.8691329325396244	-0.20141816863483103
-0.5707489727078681	0.08628031536789177	0.046400900252007014	0.4023213953380684	-0.08935088178058917	0.9111278257073817
-0.5219224531680992	0.17239101217769348	-0.027921396765933536	0.8104657111113318	-0.36394701527202794	-0.45900751757175495
0.9300506832124842	-0.09335131088773517	0.09967713065385309	0.9533045893846889	-0.1028067713028651	0.28397381504703995
-0.6340897560418453	-0.05932445040644082	0.0347429235395102	-0.7284694059589941	-0.039834027356082324	0.6839192750949082
0.7693643554948895	0.5131392292482763	-0.0011566649488589779	0.7876937192208895	0.6140762006846631	0.0494876191855351
0.416088175937111	-0.7033311822467927	0.1709107922134928	0.23221079215269783	-0.7699481176159669	0.5943551498787958
-0.4945378532845789	-0.4842332569103618	-0.011290414267530741	-0.7950339972076806	-0.597685876522194	-0.10340472082973251
0.9296754346640566	-0.11564045946762427	0.09075878531254077	0.9546179067828418	-0.14962011066273775	0.25752373586684313
0.5310657792314203	-0.5368415504533236	0.2631683824829906	0.24793967044006432	-0.48064528121731903	0.8411337785784114
-0.46929598816433693	-0.5146628792197672	0.021785885529107055	-0.7561954424229691	-0.6259716004811225	0.19059907725336012
-0.5245806221040578	-0.3928687755694029	0.057640674697245396	-0.6104475018432396	-0.28729238972906623	0.7381171521493801
-0.3826080445958344	0.5889077773258687	0.05939820409900978	-0.650140350625531	0.6064966466134307	0.4576891326382729
-0.5390307601962038	0.26073903543027527	0.06495659785955533	-0.029746972374318868	-0.12709828554281777	0.9914439688891343
-0.4392359702575102	-0.3833893875818618	-0.08532080204057205	0.02512203305360243	0.24536334646497104	-0.9691056246182687
0.7382987789461714	-0.3477994412549751	-0.25687587107338605	0.5476472466266914	-0.3475005063548345	-0.7611346079014784
-0.3144528550510148	0.6375296205807346	0.0746399521520535	-0.4828227990733861	0.6657135081857498	0.5689531349012522
-0.5074346787545264	-0.436471608868277	-0.05136415096899071	-0.6811163724336635	-0.3770463835630335	-0.627627685690206
0.6170108391717373	-0.5677309302092071	0.19867684290432977	0.4727454206472067	-0.5871746513087606	0.6570674973832834
-0.37180862603064063	0.5641165499910783	0.08986601757014388	-0.4830792246615956	0.40458070012818154	0.7764978556210845
0.8545755522999874	0.3816352510986113	-0.026501694719480745	0.8749590190418013	0.4775877852245567	-0.07972842906837868
-0.365900151933117	-0.6114089164526175	0.04958180370545296	-0.6022920754170625	-0.6940785193619011	0.39433395092256324
-0.626527159227578	-0.01775011310121649	0.04229573510288939	-0.6059239264888815	0.06689656428886956	0.792704891491557
0.44167196042232826	-0.4629687987645713	-0.30091250220480437	-0.028203388621419703	-0.19321260207599028	-0.9807514768121908
-0.6180479231500877	-0.22978305227655346	-0.0016014326438896602	-0.9592393392863527	-0.2691156765149491	-0.08623597056555253
-0.44425078639051063	-0.4436607798098277	-0.08963719476563853	-0.3009779956056187	-0.03685823187240321	-0.9529185258480729
0.5869557406964321	0.4317039375713335	-0.29392674510287414	0.24329570148918628	0.3467931873233039	-0.9058375609694207
0.8881172358939473	0.09766279693978587	0.18906739878565973	0.8519087279377349	0.10030199347551637	0.5139951647324603
0.40245826971803567	-0.37524209684181165	0.30568945767419226	-0.2555136539010905	-0.018250399916229496	0.9666331752909223
-0.4028423349964859	-0.32398381024578704	-0.0034567323971416704	0.6447153379097357	0.7643679553017038	-0.009152156676359102
-0.30506865591582755	0.6298677972329138	-0.09027545359404092	-0.5103989875272965	0.626351942605303	-0.5892165285577735
0.3888128375568541	-0.4592833224224603	-0.29691349014674906	-0.10484212292071152	-0.1201062201054285	-0.9872095143147
0.5970979043603425	-0.3612567096088058	0.3134109884090742	0.20385016755136884	-0.25590764863702703	0.944963694836128
-0.5619526945464484	-0.028109265854232922	-0.033528155307731816	0.6566463001948973	0.057621390910943426	-0.7519942897056072
0.30837677486380555	0.6183594462947417	-0.2509571367754806	0.03853115018201703	0.4721236144952077	-0.8806898677182744
-0.4945514981593652	0.2521154545706901	0.04887380901275056	0.4641211586210563	-0.4224069278930153	0.7785653070797807
-0.5302935393229762	0.21603612424216606	0.05460064451008232	0.4359439893320784	-0.24338013090279056	0.8664403903598756
-0.42135549082794665	0.5722855541045521	-0.009365268671490793	-0.7190547691262499	0.6843702091930413	-0.12082075883666715
-0.4503497797201783	0.27567876678852415	-0.003692673851369528	0.7491962145805121	-0.6509867977270423	-0.12215245082814104
-0.44031912694464204	-0.5427852169813246	0.03666318907904134	-0.7025939084871216	-0.596791484959784	0.38755867070198036
0.5163842712397906	0.02344879811573208	-0.3398367980459172	-0.23383696709044952	0.00904080490081588	-0.9722337870433657
-0.513679252030152	0.3057733971638691	0.07107331432260292	-0.07437628638552873	-0.09946512309372753	0.9922574551553882
-0.4953285739166754	0.26739855944496194	-0.05699175174740446	0.47970544715109426	-0.39016783920085796	-0.7859082269749452
-0.32247359456150243	0.4661688288199537	0.1097639959939557	-0.004388662197182952	-0.3151826376181887	0.9490208873297574
-0.5451657111432273	0.2127873067477088	-0.05842671310332755	0.21551659480717922	-0.201477861681088	-0.9554890206669744
-0.3088314033627908	0.669129003812456	0.007034803458930815	-0.5528429761734532	0.8326257038316373	0.033152390781799775
-0.5478435688019563	0.15922871695399415	-0.047562242329046614	0.4023022362431469	-0.28524327174872827	-0.8699363118273918
0.4025017627985853	-0.5827589832340859	-0.26390816595400446	0.09323791736223278	-0.42393300806992307	-0.9008815102080513
0.9160963734462602	-0.2226101411607575	-0.0454699961866513	0.9502033160510099	-0.2701307766307127	-0.15538024868866782
-0.4662940122639778	-0.466030640591029	0.07284939745701814	-0.5422276871668164	-0.3041458749226479	0.783252463792653
-0.5463444682718606	0.09513180772507764	0.025747922857041028	0.863142923468186	-0.24369884701562725	0.44226142227199355
-0.5492010524788417	-0.36390912929462477	0.046458371778602923	-0.6726375733638428	-0.28503058959648564	0.6828735299405593
-0.6110480595819369	-0.044154928077012885	0.048778671821280324	-0.18309074237920198	-0.009968389500847288	0.9830454777200252
-0.35614720549681417	-0.5329450755162874	-0.10921781808595918	-0.3361840811411105	-0.14064190795539455	-0.9312358011341558
0.4257051395086451	-0.7083577096250518	-0.1600115915509073	0.2719349441595831	-0.7834538533734359	-0.558794636498275
0.7028724959559028	0.5861303678547986	0.002174295470438088	0.6973270552029693	0.716667891244767	0.011050418124846455
-0.6317175838315258	0.07208515169056798	-0.03625997244524	-0.6997553589960709	-0.08456165342553913	-0.7093601090604261
-0.3657845750537443	-0.3532708624050499	0.01075786300940453	0.5429702844344575	0.8331922966444602	0.10475622670512238
0.548538793939965	0.25872120862082876	0.33560421358259296	-0.015867433712713173	0.11404340716036514	0.9933490453162106
-0.5753621639266533	-0.3007638446972193	-0.04554438833062907	-0.6335706905692702	-0.19409816426741391	-0.7489419755091835
0.7454854754954799	-0.39555536504118854	-0.22595991462219622	0.6100599741447901	-0.3991417252930053	-0.6844798836171755
0.4554116096744391	-0.36777742610167535	-0.31636004566234915	-0.1436239145751217	-0.07764536864777986	-0.986581657993736
0.8883653564823781	-0.13313222283665088	0.17991332506880808	0.8424102713215005	-0.13585338675912254	0.5214295657882404
-0.6397963022307067	-0.12927460177122355	-0.005092068228882458	-0.9831418247917781	-0.15372077890275423	-0.09900542651099292
-0.44156217106791645	0.3839354847573289	-0.08552299970065702	0.016862947193812435	-0.19909233908783305	-0.9798356400583077
0.6205041606685071	-0.6497412794221362	-0.0557371015831913	0.5749303258205809	-0.794130897043529	-0.19700568218373912
0.3650410674117295	-0.2539980437822004	-0.2833673057502598	-0.4942228014698461	0.1216419329173389	-0.8607828196841697
-0.5844937177893029	-0.2856118773542672	-0.041233889263217485	-0.7537978747172334	-0.2754225465341795	-0.5965996856623454
-0.35314384427161183	0.42581097941775903	-0.09314647437660555	0.14832285286954433	-0.456532887709934	-0.8772559796067898
0.6460276565885144	-0.25004837419631404	-0.32699280335211195	0.2271695907195327	-0.16840592649124048	-0.959183726391846
-0.5717369459642807	-0.12021852210382383	-0.05082221795111377	0.3262711340258193	0.10094800396124992	-0.9398705483191525
-0.5661273944905773	-0.34929331849589057	-0.031320086405304114	-0.8122465798234272	-0.4048192813704189	-0.4199724312331493
-0.5624066048655606	0.09818737408808957	-0.043387302585413984	0.5571879275501533	-0.21476540080792433	-0.8021330538060231
-0.5124056472803601	0.19445901233822765	0.029560054609028566	0.7408579258710244	-0.44442706158798584	0.5036011523044343
-0.6114430010288839	-0.24257272230256063	0.018104568106502916	-0.8992373990790331	-0.3203417594198973	0.2979148490245818
0.8826683992338427	-0.047160782809564525	0.20429323358241033	0.8115551940231782	-0.06716257103991344	0.5804027533577959
-0.44700653751597696	-0.5383092125254789	0.03017060294477291	-0.7242822342982793	-0.5792224500013196	0.3740542721241946
-0.48760787668348127	0.22680039182811335	0.014927974073780074	0.8317137218484673	-0.508641608926277	0.22256684065210147
0.4171638379926649	-0.41179754279929953	0.3064387687043019	-0.16992212671073756	-0.09355949678775906	0.9810061627813157
0.8375518563914515	-0.09669428970961763	-0.25040617924751996	0.6762744218171919	-0.1106028860752058	-0.7282993258184836
-0.4081967360835074	-0.34039347858828545	-0.04998570563274954	0.4751693184106021	0.6601376429087289	-0.581749440271421
-0.5567696844570434	-0.05210814500835436	0.030021276582598806	0.7261822368278184	0.0770522027317001	0.6831707817009883
-0.5464048366099188	-0.05725947624795532	0.004655944174563511	0.9788031383892856	0.12674244337754426	0.16087501150264316
0.6058042544825559	0.6611684150596412	-0.052420139195665745	0.5591696623549663	0.8131890689023853	-0.1614088811667595
0.45759244623251927	-0.24899881157994463	0.3222015769838878	-0.2504507723645162	0.0006464229701689667	0.9681291198798647
-0.4586235243138205	0.279302383606095	0.03458403671514733	0.6473385593724548	-0.5753089805859416	0.499972365643101
-0.5532441816378989	-0.026973836367195192	0.019817754972179545	0.9394284901608074	0.10410119963536583	0.3265532913762517
0.34366858047249593	0.6135283088787835	0.2530623970553437	0.014600492816218613	0.3901867753753671	0.920619957382902
0.301095625088621	0.32678545373290674	-0.2583808626361999	-0.5060922348411364	-0.18950204538995122	-0.841403366184453
-0.4653349750330212	-0.5052771950038129	0.04611592662801148	-0.7413023762196217	-0.5423009066836821	0.39544976118490505
-0.5476418929357347	-0.35696581503336094	0.051395101886632946	-0.6712794731990551	-0.2773674374120747	0.6873508372913051
0.5996629021514726	-0.6643000795961251	0.057672030587950535	0.5594440843946191	-0.8050755309933613	0.1971692314526342
-0.5710340597365692	-0.2865312344311715	0.05324028740746991	-0.6088424502473404	-0.1632416163157119	0.7763137545344972
-0.526937827836707	0.34857623213960115	0.06781034183205792	-0.41643627440691744	0.10936539994461267	0.9025630386034209
0.5136857426693184	-0.6510143390143298	-0.18230217309547797	0.37910959887414064	-0.7011678567693586	-0.6038539133556662
-0.5071449791038202	0.33591148480118127	0.07448295839251906	-0.18344364812008865	-0.04964548139183389	0.9817758166413388
-0.34721844680602326	-0.3646601434682632	-0.00414456654703433	0.5333484445639147	0.8458769321260372	-0.005626044640333588
-0.6274412138551447	-0.15784005703421633	-0.02767148562576773	-0.7997984031965574	-0.1582915436138072	-0.579021848866341
-0.6453494685084057	0.0026238549055304684	-0.021049129896017878	-0.9023765270120151	-0.008046289440008875	-0.4308733697085271
-0.31312713304871354	-0.5857083004781489	-0.11223801142018826	-0.39625424261515074	-0.39122807971159923	-0.83061613568162
0.38370837379666567	0.23631613558755904	0.29170681579681684	-0.4995175084669181	-0.116161092347112	0.8584805526974554
0.3014512514451985	-0.7149565333542489	-0.1891106169641908	0.11813693746167343	-0.6976166039334409	-0.706664515823137
-0.4732521601541134	0.2823851331380216	-0.05173370488221978	0.5148718010713105	-0.4830127291688558	-0.7082412949852878
0.36044419802743344	0.36597582034037845	-0.29279372022039457	-0.3588223576469278	-0.007740543933368718	-0.9333737727364718
0.5075180892416191	0.37670002847408357	0.3188411501654948	-0.02329282085391099	0.17629001571032382	0.9840626376697374
0.326690432095587	0.3262658847287843	0.2731198840198234	-0.4632432611556415	-0.1618503538400518	0.8713266574343603
-0.5097903633903107	-0.1943089551726406	-0.024845755822857217	0.85310738097787	0.4277161055227752	-0.2987753831852791
-0.5507528257719049	-0.037424878249799544	0.015258769656043192	0.9617059932330708	0.015541895502882583	0.2736421606108446
-0.5862167975212456	-0.20784383799887957	-0.054349700700548134	-0.3456469542496736	0.08055897861910936	-0.9349002267524439
0.8847846831048809	0.09911041747933032	0.1938130334655125	0.8522042431015308	0.10036311772320065	0.5134931086593337
-0.5430022094499861	0.34215594487129153	-0.05995323671611275	-0.4808952382964929	0.2922836310963771	-0.8266257005300983
-0.606362395885746	0.21660640022449404	0.03904315402868674	-0.7143063024697645	0.25659399899758223	0.6510960189790764
-0.4082337911591695	-0.3339571670805511	0.042102624585952174	0.5496152101591196	0.6964176371410811	0.46143861502975764
0.6103477938317479	-0.6400501244150565	0.10597769720150035	0.5639758015785067	-0.7742036056831645	0.28729788057183375
-0.47595841799230054	0.33338434513625154	0.0747909115009742	0.13889415358859097	-0.2962511280444446	0.9449569742751797
-0.5173465429916106	-0.3981137277589559	-0.06159279033802028	-0.5704001452659817	-0.2568072703252514	-0.7801882466357978
-0.5173805088263502	-0.2512504431336136	-0.06014097490766474	0.3225418112477703	0.25997852412467554	-0.9101527053143139
-0.6002710044469534	-0.20677283470394578	-0.04655827230036256	-0.5873118402125482	-0.08162665312751599	-0.805234060286418
0.6364520330621456	-0.008638117402936322	-0.34807657646792545	0.09204035560568509	0.00735153418196083	-0.9957281395467084
0.30337022908193007	0.32314345162445424	0.2589045016366615	-0.5298791104489254	-0.18141119194490424	0.8284431831737074
-0.6294210109244676	0.13337884215451815	0.030872319226855186	-0.8705101380863322	0.13727054421165255	0.47261918833322025
0.4756624402228662	0.6905365118985392	-0.15617556377679986	0.3391395646543472	0.750667589520395	-0.5669942907381874
0.8360638941271876	-0.4039658825938482	-0.06576814025727261	0.8488341590124834	-0.48305067719748324	-0.21480831862994038
-0.5094989109308116	0.4606606375424442	-0.01807496764153317	-0.8286332470842388	0.5249491613042893	-0.19441018459060672
0.6296901323372984	0.6134329492472463	-0.12894663116884458	0.5568637456191612	0.6980266850832482	-0.4501794261477206
-0.31172117112211695	0.39798219431945514	-0.051312214633959206	0.3819962656483126	-0.794460946230789	-0.47213415248721763
-0.6349806383523491	-0.1563627340310115	0.00659520401522906	-0.9733813412268185	-0.18745977451614393	0.13186203960896492
0.466425618131393	0.09381350606791976	-0.3240574224438253	-0.36473138900928437	-0.016915419516764313	-0.9309591196470063
-0.4052153464712563	-0.38763582741251823	0.08278317300443208	0.18776791295426162	0.43870102044162973	0.8787972607651173
-0.6446404376103826	0.06618955876060485	-0.0164991762780652	-0.9460321537716142	0.08213506831136044	-0.31349161804381703
0.5634722390644983	-0.6934968240251049	0.024678085107729557	0.5306603469379266	-0.8452338045896195	0.06308257894756808
-0.5667108295915574	-0.16750942986777917	-0.05541804980699125	0.10945225144408645	0.14423511868986724	-0.9834716239883792
0.9016887078140754	0.16073661523943564	0.14519290196793874	0.8682283447497315	0.18734886082712243	0.45943437585788144
-0.5848443033381951	-0.018110004941388074	0.04781124142604012	0.3249005866102487	0.051617410547702	0.9443385260321988
0.8462159536931816	-0.2966604143790942	0.1691801624691851	0.813552373921106	-0.35201727703770075	0.46283514511572665
-0.4060856554896497	0.3529911073236597	-0.060796353678700815	0.47367423408090037	-0.6446669422105761	-0.6000310438541808
-0.5736083789345332	0.3134617395329478	0.04235850461402367	-0.6854384957509403	0.2902775556450627	0.6677671819065503
-0.5604602850355554	-0.3707632380630955	0.02063610714795491	-0.8660083556741699	-0.4271451245958904	0.25995493924232643
-0.6311980033382127	-0.08471978342101413	0.03572906279877271	-0.6269597798074861	-0.11873571813521713	0.7699501696490902
0.3785111072461515	-0.49713233799475653	-0.2898058754828378	-0.1051645536830597	-0.1783455130144045	-0.9783318939073138
0.6731153090366454	-0.27308852854540455	0.31454837094527377	0.2998636979447403	-0.21294880132076047	0.9299110552471977
0.7989923430862864	0.39371741757487655	-0.16552873347946379	0.7333467668035111	0.43895039245744466	-0.5191580420067597
-0.4409256020844121	-0.29757223891314266	0.03307150905853626	0.667145155591556	0.6205662449208864	0.41208600684263574
-0.6307121871732034	-0.1405397167449309	0.027190507926759554	-0.8753435704893113	-0.15519390119922644	0.4579175544064557
-0.6345049316221536	-0.12919999006040161	0.02349583759483925	-0.8827878041188767	-0.1264365380117936	0.45243728267524963
-0.5386206642418049	0.11881815982263452	-0.022784930259109486	0.8369427227108862	-0.3293314183941208	-0.43711290962382493
0.41851359669291777	-0.18111857965135914	-0.30542807070137834	-0.4317057413179834	0.05015564376400554	-0.9006189895353692
0.4514126775495668	0.4052924948850552	0.3115432321469806	-0.08877699230223286	0.10757765321082169	0.9902250724796976
0.7888381008223275	0.4865605808734168	-0.02346787491755162	0.8010072635900141	0.5951755977786766	-0.06444665611831893
-0.6307620838294314	-0.02867151853729965	0.039098537737318466	-0.6614732449677999	-0.009417299962147019	0.749909634991571
-0.44326097035545875	0.33715776447942564	0.0681327377418995	0.30100126355250884	-0.4394619383774628	0.8463282129631008
-0.40882773248989346	0.47239634398342134	-0.09878990273697094	-0.30073182542850146	0.058564900440913024	-0.9519088830401712
-0.5573800905498734	-0.1921219990600056	0.05724408551167504	0.1403294574783341	0.16065009539362274	0.9769847441049707
0.45235000017974436	-0.5724605558219366	0.26277188504174726	0.1461251555431019	-0.4381325006519646	0.8869539733210288
0.7701812301225277	-0.18895031152785513	-0.2867712784022847	0.5240754907533148	-0.16260677026920523	-0.8360047357846069
0.47200072788599556	0.6518224616527377	0.20248076958728772	0.30456882270869406	0.6589338035148459	0.6877819965798011
0.444729397189524	0.5075171193156156	-0.2893451151658978	0.04503468116492261	0.30941504476865567	-0.9498600989425673
-0.38867773370277764	-0.4418874341745158	-0.10027510890900344	0.06596889460257632	0.1651745202118405	-0.9840556299405552
0.8676904201755428	-0.021347641063023913	0.22509872324641672	0.7673733168813774	-0.02161270949630051	0.6408362375261734
-0.6159257096112425	0.10736885584789055	-0.04573907138370485	-0.500861276115419	0.02715936446629094	-0.8651013530273903
-0.30762491075949217	0.49964900766094766	-0.1206329626955108	-0.09888839579502909	-0.1814925704400763	-0.9784076512641033
0.7067141184625606	0.5261792376636723	-0.1536000097010072	0.6396413738325288	0.6114030611946196	-0.46588111106105495
-0.5472243148795353	-0.04977549958782726	0.0031824442667068116	0.9884441985531234	0.13456487409917062	0.06978797178131103
-0.34453620955297765	0.3675567027147416	0.01527640388102317	0.4913384061561294	-0.8608946251807187	0.13208714915124725
0.33950793559992265	0.2325967601914405	0.26323811726677165	-0.581104595311704	-0.16931727518739223	0.7960207972350584
0.8084999057914313	-0.41497029217625747	0.12588076444436144	0.7900621043940572	-0.4835906954579018	0.3767517889366637
0.5311930118614461	-0.09256511372004954	-0.3424167723722306	-0.19810259981322448	-0.025177308673608657	-0.979857879018787
0.3537318055858298	-0.6753528635979471	-0.21520800350259398	0.11390101657153318	-0.5982141756469761	-0.7932000746841747
-0.5788165826734017	0.06965383350330956	0.048159576559265053	0.3789313856197153	-0.13993991158806798	0.9147829393561333
-0.6105655291990697	0.18606727938001985	0.04156888042488946	-0.6514660642193189	0.12752401919068107	0.747883407825074
-0.6006496295716577	0.27521764748889316	-0.0190970185369741	-0.9245859279033924	0.2996085667461142	-0.23532014077711907
0.8796190284784724	-0.20483006170617551	0.16696595834577424	0.8204803531273587	-0.235797127727965	0.5207799004255512
0.5364164357367822	-0.4833729137252046	-0.2865097570754069	0.23539309474634715	-0.3766050298730566	-0.8959680476557471
-0.6258667804895752	0.1733648753014508	0.02510453009330864	-0.9005751060499001	0.18128528117465698	0.39509508373635266
-0.5436092828105124	0.3359551311348202	0.060971138667817795	-0.5175282614892522	0.1795346877496164	0.8366192649315214
-0.4751772195746302	0.24276074967590522	-0.0016269614185033413	0.8091456633306675	-0.5786055876331656	-0.10246399110347551
0.6185972535351427	0.08241656539800288	-0.34785485623335055	0.06678821997661064	0.040164273032704	-0.9969584569299315
-0.5582763888831468	0.20756122891609805	-0.05924051764963736	0.08926666235021836	-0.11770143061623227	-0.9890287337705328
-0.4780933288062204	-0.23856659642363381	0.003480242492029431	0.8297746366804617	0.5569554799870117	0.03570217968478678
-0.4089417382951168	-0.5828225466270711	-0.0205175924630412	-0.693667794780437	-0.7007532656588753	-0.16664288509524852
0.41945628568206617	-0.3333193658866343	-0.3108695457946135	-0.2821347867711933	-0.014554245202303917	-0.9592643723396406
-0.6045843773061192	0.026978716851351208	-0.04988025290055577	-0.09536401620474934	-0.06464400047320017	-0.9933412593948368
0.4336042581512235	-0.744459835203438	-0.08659947834674132	0.34463542372444256	-0.8787968452618777	-0.33006443230382443
-0.38462114150632837	0.5795076833426498	-0.06763876429080487	-0.5927695671952409	0.5618589407538346	-0.5770084669241391
-0.49976081887312374	-0.316388578611348	0.07276691556331072	0.054138276087381414	0.17931827663566788	0.9823003627845711
0.526284222761337	0.554422608623886	0.2548209897950281	0.2627292620255405	0.4847902221808751	0.8342372416485212
0.5274949679323414	0.5709457134758931	-0.24420172171869312	0.2776515778527268	0.5157375162015563	-0.8105087388166408
-0.3387260937649649	0.628242209510929	-0.06046650260066853	-0.517190157321711	0.6911898278217283	-0.5047484156342775
-0.5304772937150722	-0.4201324246830454	-0.03015630340583401	-0.8166949559013206	-0.49438404159111304	-0.297647053446488
0.6309077097603313	-0.5107514185220351	0.23536155404325046	0.4329170689702298	-0.5071568336735919	0.7452346995761812
0.5801851578633548	0.12924268500995761	-0.34636616173516266	-0.012074958082248195	0.03450733605537089	-0.9993314961241209
-0.5276150551554252	-0.2408281923996627	-0.060306483347470394	0.19621816287660251	0.21202621109135578	-0.9573626890408751
0.39138390032258497	-0.024155168449411187	-0.28122971523365076	-0.5909760937585714	0.02143564605037998	-0.8064042222634152
-0.6233383167318645	-0.11015015486987914	-0.04056310289013531	-0.6633989348707252	-0.09763697516735878	-0.7418685020221274
0.4302871581859997	0.09285880837973404	0.3075877941092928	-0.508948416502664	-0.0507181163795426	0.859301566395839
0.3287620538956314	-0.0005143596655972705	-0.22120141581704783	-0.7709892887676448	0.0066203817222013905	-0.636813698935107
-0.5622281527116488	0.2672032863593293	-0.060474141377611784	-0.3402334632834004	0.08243681044899535	-0.936720536096642
-0.35520031749894143	-0.4396766539625059	0.09985613797277133	0.070009494508724	0.37741526473123016	0.9233939509367002
-0.5203433349907852	-0.35002000485413826	-0.07050477156821562	-0.39254372743504945	-0.054747129307162065	-0.9181024855014949
0.3053596941095323	-0.649473376037491	-0.23612382039632712	0.1030250725641794	-0.4588505942975611	-0.8825202357656854
-0.48582129573137334	0.4971272090651202	0.003526484496865194	-0.8013206626841182	0.597890865099044	0.02029061326336193
-0.5748853077884809	0.03515210623807684	-0.044159624041406366	0.462824838277645	-0.06984213878147262	-0.883694090012885
-0.6156963444480507	0.2075842442633857	-0.029546632590017715	-0.8492947238845259	0.17298292903658366	-0.4987738748609756
-0.36833227349918934	-0.4219289589307092	-0.09316264550980799	0.13728256554571489	0.4567902836671831	-0.8789175922374295
0.8067899573496702	-0.13725536896051965	0.270788743931478	0.6358707558897021	-0.14946645044360193	0.7571843646008873
0.7117802588859958	0.562358512088291	-0.08127407073127894	0.6948303970366038	0.6709366202986269	-0.2589493597138455
-0.5133341706843366	-0.20400121547499173	0.037491382904370214	0.6712069050680858	0.32733807597144454	0.6650797505624687
-0.36312462398920314	0.45053993734783937	-0.10369744223753924	0.011376845624816695	-0.3096906775779691	-0.950769294626687
0.4267970878570275	-0.5815113591072749	0.26202684268546256	0.11363416993477436	-0.41911919241300605	0.9007920836543275
-0.6082415380851365	-0.23146702515133633	0.03157265795950663	-0.8196636313528542	-0.23532453154177546	0.5222776046242986
-0.4205882168802573	0.3447661457454879	0.06245537497633478	0.388553164616812	-0.5807094388238662	0.7154040717854009
0.34644543832595576	0.13305794208955785	0.2514596861402496	-0.6517413817606645	-0.09837219635876947	0.752034628381068
0.6302671234614807	-0.646042129544661	-0.036479026676479266	0.5984248195037724	-0.7911179448036596	-0.12657066331307384
-0.30608675090197357	-0.39215075818064093	-0.032971786077865224	0.46078284415445814	0.8472808815314112	-0.2641860676195529
0.443176595554128	0.5789115914889846	-0.26101033746527824	0.11493889849746991	0.4287553632375256	-0.8960791751331167
0.5988355933608563	0.05321652176770192	-0.34940914362097253	-0.007847363550947284	0.029204563679648497	-0.9995426515890053
-0.6168719364866874	0.0004505447960225528	-0.04706735820090074	-0.31221418307751525	0.05738671381316327	-0.9482768946689389
-0.6242121954289548	0.19765592677397292	-0.015819824214899265	-0.9139101339116702	0.234549727356482	-0.33129245770248517
-0.4812520186199614	-0.4036060644500616	-0.08029561876267916	-0.3899301326533537	-0.1945374375353574	-0.9000609296298305
-0.5712814045465519	0.0154796805439462	-0.04114302560617922	0.5492282237145408	-0.025804929550387434	-0.8352738855526793
-0.5513773990159445	-0.33106484063135627	0.056899286343487065	-0.5641443303170749	-0.19531731652142134	0.8022420585072624
0.7241397249227818	0.45175918761520417	0.2069769949520571	0.6041217664919323	0.47905327143593446	0.6368240372168729
-0.5179825009257466	0.16431058816625205	-0.007068491953616585	0.9307783494924136	-0.35850726913130265	-0.07158353229755265
0.36065570771652	0.7695644863412643	-0.08409259761406375	0.2435233152113236	0.9090873442616816	-0.3380186318115153
-0.5005498656631354	0.4621894440440401	0.038125376471409886	-0.7476596133623522	0.530248688643053	0.39980173928984003
-0.5356123380292844	0.11958023070257141	-0.015869198984114798	0.9065551494719731	-0.2700434852374626	-0.32439833083209946
0.36967967401274837	-0.04941157414639008	-0.2646362394918351	-0.6495448773070797	0.050556117333765846	-0.758640581147796
-0.5161432142026594	0.42741758824050946	-0.04706743689357451	-0.7331806773240319	0.39356187682559585	-0.5545765443184458
0.5683235039121062	0.6309645838623874	0.16775756693324098	0.46805443207597347	0.6879698947612138	0.5546372440760554
-0.528891845898577	0.13681774638981523	-0.010834614629391002	0.9322466960553499	-0.24166980885029868	-0.2692801537138308
0.9491752901468622	-0.029600348988933194	0.014252877735893258	0.9992776512686375	-0.016026320470451685	0.03445769474607742
-0.5655318256905688	0.016369047902380737	0.03653080418680469	0.705902393546567	-0.008828973908926147	0.7082540928261154
-0.5560430865902237	0.007192818357601097	-0.02394018305736393	0.8806517260066327	-0.0854683993453152	-0.46599108381479615
-0.3365701478652451	0.382198878708324	-0.04406915111446237	0.42716921007304565	-0.7872014950684962	-0.44479239216458605
-0.5699060786047376	0.12832039995462485	0.05127681017016151	0.30392730626308445	-0.21872017234135455	0.9272484449804343
0.3278648294842188	0.05022149158816325	0.22203962770202826	-0.7648741575776723	-0.02123794053554895	0.6438295371848469
-0.34120204228810236	-0.6441942987428423	0.014531599980769782	-0.6169098358750877	-0.7863177193915798	0.03356633091950573
-0.41832582777660066	0.31428257908874835	0.022765945062288462	0.6382105013999531	-0.6940816127477966	0.3330736716527424
-0.5461930864087414	0.11635429054201014	-0.033369729304744224	0.7540800968154251	-0.17374530431694868	-0.6333843831471135
0.8961907837880347	0.03421103218979427	0.18522286444369448	0.8614189906117588	0.05032734932565576	0.5053953705004357
-0.524978169763461	0.3871839260672039	-0.05957112945520108	-0.6467110601227349	0.30419109317860626	-0.6994516305976655
-0.6174788560431306	0.21667304104632742	-0.021431896406635464	-0.8951808737510771	0.26391255123874396	-0.35916760512178064
0.555626876227667	0.16587771839741658	-0.3431409278308445	-0.09824800828337826	0.0458224727569702	-0.9941064479515191
-0.625163697046017	-0.1821426643006267	0.02275049835566221	-0.8860809377171012	-0.20294198741678654	0.4167434721236877
-0.49605086512021945	0.23636209599031696	0.04024465558706454	0.661979497603202	-0.4438681825777092	0.6039571021588979
0.6278143176981141	-0.4000488676973834	-0.29281398973938527	0.32495302776952906	-0.3327417074757265	-0.8852618176842116
-0.5006473144107587	-0.34075737770163256	-0.07579023513850075	-0.12347327571934734	0.05941841016270646	-0.9905674145240551
0.48272228467292005	0.4771465519007686	-0.29639947934516586	0.05357144275949138	0.2801928346251527	-0.9584477429392741
0.6439853042193155	0.44716394093977135	0.26571538691701185	0.4112471828166358	0.432027127621075	0.8026383467196563
-0.43910937032892194	-0.290803465648471	0.015454145914743332	0.729763068101813	0.6418353656948161	0.23557000610865114
-0.41753041565340965	0.4341091172968396	0.09599055819182264	-0.16261077076980937	-0.0911158320486471	0.9824742451483051
0.488848126954888	0.5086569445873654	-0.2850485439469262	0.121492457018339	0.34587644246121757	-0.9303811420262228
-0.562811268563007	0.35621370534429164	-0.03164270970696506	-0.8075581562543046	0.3799790860116179	-0.45107174425020624
-0.5285962708911336	-0.21823958305075747	0.05452652174792604	0.34153850852272344	0.242848002215015	0.9079517030196314
0.369698693311329	0.2562935184099755	0.28628803676967407	-0.4845707267667307	-0.11001261880069638	0.8678066803530471
-0.5752596628951314	0.19442736880171316	0.057443985002034646	-0.08807117309370281	-0.054898512266800634	0.9946002321640541
-0.49736571723066864	-0.2666531102398375	0.05766398720400785	0.3918908027416701	0.37548593428836335	0.8398999415871419
0.38566258549200083	0.28863711335966213	0.29743300277043727	-0.4099886622928942	-0.04915940759837986	0.9107648705543376
-0.5322393348668267	0.20156057920902806	0.051123206800305805	0.46375209023891517	-0.2833432752869503	0.8394346830746874
0.6071906764429804	-0.6657720856426874	-0.0016768224669549067	0.5927526911098467	-0.8052524966833383	-0.014582995826816894
0.5082323107047535	0.41290959928293147	0.3116346945636539	0.042550151315067064	0.22427961908237387	0.9735954689126944
0.9037430139239022	0.19686806401090615	-0.1205063710123988	0.9009734600155739	0.2409725860069329	-0.3608033219646075
0.4993924298421514	-0.6710515493157403	0.1670823523517126	0.3713507863950894	-0.7595134686462984	0.5340766652725221
-0.4295185525488344	0.4449015704092564	-0.09403193260649183	-0.18902930737650325	-0.0718697484758885	-0.979337868259352
0.5808085005919522	0.37867083742774144	0.31198772032678673	0.20385046877578894	0.2652705753871307	0.9423781131868846
0.3589269591720492	-0.19806776320820635	-0.27140587619742734	-0.5821671562968089	0.12447124370703694	-0.8034851035453676
-0.5800090654315223	0.04245820537041427	-0.04690621505919268	0.36114599824129967	-0.018245275484450763	-0.9323307770725962
-0.5362190784800813	-0.11734787120642275	0.01576551272106144	0.9011274461116658	0.20900497666973433	0.37985029365731715
0.4588275085834712	-0.591804852703607	0.25111378366726655	0.17446487970958321	-0.4970296647873328	0.8500138340458416
0.5749087533457463	0.13126283732810992	-0.34608363736227904	-0.03796291227035509	0.03726457507793436	-0.9985840819561537
0.42995062325830535	-0.4027153068527649	-0.30928467720732	-0.17149470403424924	-0.08002366284774806	-0.9819296206310486
-0.3888045444005187	0.3355867015043857	-0.002945088594546857	0.632150949331318	-0.7736716076599173	0.04263121814390039
-0.623350281832237	0.09138376254515736	-0.04195669049627521	-0.49590204441174696	0.05300287198419579	-0.8667594002430412
0.6221221455480475	0.6427700926533717	0.07655967751276344	0.5539670132594636	0.7722437650932983	0.31106288029097307
-0.5169447789608241	-0.25631440885006973	0.061448917469474146	0.23704482844068303	0.25229596442620045	0.9381665607149836
-0.5601001096738669	0.13655145283755044	0.04891898709083264	0.3956451163517253	-0.13878515594062174	0.9078566089408431
0.5579126486582994	-0.5183999185039597	-0.26442565096831006	0.2558175521732782	-0.46215289672511517	-0.8491007478789886
-0.51587791181931	0.4164031275000991	-0.05450630259129695	-0.6362059269147065	0.33302763046094536	-0.6959415319609593
-0.4102003123811343	-0.462881184179127	-0.098800556028197	-0.23739231353860157	0.0030942763857271655	-0.9714089329043865
-0.5671371937221173	-0.08637578043048061	-0.04450871499165416	0.4684324116253219	0.11306253635792238	-0.876235093231947
0.5226540217202587	0.10514958940652602	-0.3405496423802491	-0.20902783822110663	0.000429543275165499	-0.977909596200582
0.3021330746437887	0.2951520114835958	-0.2507608665942215	-0.5667270167078657	-0.20647750692832886	-0.7976136456117484
0.5118632975162277	0.6338707086700465	0.20115746769766377	0.33273452637060075	0.6366559038427805	0.6956701769251468
-0.4598985007286076	-0.2916426591984572	0.0480046383762477	0.5783246792364207	0.5488066388750277	0.6036156380618263
-0.6047219599092513	0.18610340305084505	0.04623389849886683	-0.5837753334422963	0.20392284400233165	0.7858891994157556
-0.33285998122541405	-0.5666482237050255	-0.11005778568141555	-0.420536100716983	-0.3453569449295404	-0.8389743551400661
0.4311804135247411	-0.09372954317827425	-0.3080811807792065	-0.4677076901022406	0.019588878582315464	-0.8836661091470654
0.38752261634722296	0.2924339000708596	-0.29852126814090435	-0.3831333403191659	-0.06922430375587516	-0.9210954561311184
-0.5478601119217159	-0.043708656126128356	-0.0027689182504688674	0.9846080310650239	0.10239562226891624	-0.14164096053902847
-0.5976909286324649	-0.26755346927317136	-0.03118931027067138	-0.8502562325051082	-0.3016278709867694	-0.4313756675221828
0.6245250419220189	0.4946278614889167	-0.24936200779728526	0.41615309309958354	0.47078563031588677	-0.7779315480115992
0.33985168966865775	-0.37409037069951123	0.28560849514736236	-0.35634930681981786	0.08072982390045172	0.9308586719056966
0.3740668089084529	-0.7689327120196732	-0.07403369217725154	0.2731960867099676	-0.927905349105494	-0.2536839792099032
0.4775685956605966	-0.7393988279429555	0.02559404389291765	0.4248664977038807	-0.9052200924093017	0.0080649505475191
-0.6225820524753863	-0.05629558865732307	0.04393405883699819	-0.4893704439890292	-0.08349569942445824	0.8680697188173321
-0.48010560948209396	-0.25020464634501494	0.03242283155144009	0.7587874263658725	0.5009416177856557	0.4162921295909242
-0.3836113451619598	0.4449183159374183	-0.10127679378000363	-0.031416157314866924	-0.24679086020063806	-0.9685593922837139
-0.5533535881324831	0.3817338812246695	-0.025231454774272244	-0.8264876185416653	0.4323741471539864	-0.3605146505624838
-0.5720246073136995	0.3185060847098605	0.04194364272318804	-0.6707100137542457	0.345767702985466	0.6561956819592274
0.6694520659892456	0.6123348662048166	-0.04599085889708684	0.6592946992254356	0.7399720297871865	-0.1333112699882267
-0.48572305743688265	0.40237867783534764	0.07869625518577697	-0.37068724937792275	0.10556524163991193	0.9227388270286105
0.7420642473732005	-0.3190427607814152	-0.26637243289922224	0.5121733896831479	-0.3083708683999207	-0.8016145123578744
-0.5637821897114127	0.015385774878585135	-0.03477091075488304	0.7602075743588602	-0.04119940413496598	-0.6483726189363193
-0.33109769511089393	-0.6334754844794178	0.06212462419569197	-0.5451907802423985	-0.6497080402945844	0.5297607719671729
-0.42452910057589677	-0.5548661256436156	0.046027899434459035	-0.672049637906283	-0.600592098036345	0.4331725013967715
-0.5730256991739578	-0.17439885777039554	0.056489636479174356	0.09027910055529423	0.12221148484567099	0.9883896180023057
-0.4985490294742195	-0.3410779500751605	0.07609181664194067	-0.11354389681449914	0.0704490842456808	0.9910321437900598
-0.6277441998205026	-0.03229498270174563	-0.04127172408625016	-0.6839722901162669	-0.0178922069769478	-0.7292885404849054
0.5706952613077375	0.04024179352118114	-0.3485144826361713	-0.05883312359112411	0.004891999885064436	-0.9982558449143369
-0.5569829109131593	0.27458684130538225	-0.06200448876755894	-0.33242552022568866	0.051532960047428446	-0.9417205676480842
-0.5815140519841597	0.006250821729183042	-0.04647985856138744	0.39957080993561567	0.016827561157245416	-0.9165478716536822
-0.5796000762890914	0.15659077861904952	0.0551905360925492	-0.060355634728907766	-0.05849292274750877	0.9964616276329581
-0.3873754499192301	0.47121113865385417	0.1042652774362248	-0.1725624441901522	-0.07699917187347156	0.9819843839827191
-0.4732221022510955	-0.24715137160472858	0.0110495094977051	0.8215692698842665	0.5629993113384351	0.08975360836357657
