-0.5774528483269014	0.2651595369442799	-0.05292425540418141	-0.5382120100279584	0.12291938747510624	-0.8337977311341218
0.7767260957655128	0.4673924979994478	-0.11823941602539705	0.7658946764886382	0.5506676978889168	-0.33191931403292196
0.46131417113950623	0.7244794996323298	-0.10815116310677435	0.3602881847853837	0.862373630398927	-0.35567421258312715
-0.3974639933625686	0.5945690876077174	0.018348375355751227	-0.6819458457525337	0.7194349853950793	0.13176936385383067
-0.3355267959863342	0.4778601080095345	-0.11265815209017806	-0.08949555721343658	-0.23637687054235948	-0.9675311469465239
-0.5637786712027668	-0.1075889719454222	0.045765784543803104	0.4564818702159325	0.15884409985844355	0.8754386638162179
-0.35023314770931446	-0.39035017727662197	-0.06523710590689695	0.38096905572138867	0.7054497069267764	-0.5976648639326881
0.26099946466051005	-0.25333668220790917	0.19701721757094764	-0.7175600683720931	0.2811650446387324	0.637223481952083
0.2106502387214784	-0.8107877743193698	0.0025567412754116	0.06515557662345689	-0.9967627769427775	0.04710326247923892
0.34450650836354557	-0.17740445466386	-0.25684837221616325	-0.6309861321257056	0.12761748906985054	-0.7652256383241145
-0.6192569177073306	0.012179106629786435	-0.04612424126945881	-0.34615347246474143	-0.01634476881756866	-0.9380355121384809
0.39744997479428856	-0.1470562597455744	-0.2915646657047687	-0.507185872090515	0.05521900412721245	-0.8600659002279898
0.5054455119827229	0.7230603653916119	-0.04604419992632067	0.4519847461323759	0.8805493414676215	-0.14262764986000637
0.7432727957841219	0.3790459128107518	-0.23746531019912295	0.5840985894873791	0.39147945540058626	-0.7110363378605306
-0.36031290732858445	-0.6223805906953012	0.03726792510746026	-0.6384245249041225	-0.7095200599911138	0.2983209856365314
0.3807561527481977	0.08251401044417833	0.2754252354253851	-0.57688535529405	-0.04763293373334174	0.815435092739583
-0.5438451259660322	-0.09329677548546154	-0.0199095814774257	0.8770064470621575	0.22351275768323742	-0.4253254506424992
-0.06455664849423708	0.4379905368470246	-0.08362521582259971	-0.14942277277617338	-0.8944674503607071	-0.4214271173300278
-0.317872642818395	-0.38506691848986996	0.02802337638301093	0.4195291472711067	0.8632247768300378	0.2807815507769525
-0.2733348578619121	-0.4070494488240576	0.038877437017233694	0.2674595259533826	0.9062718595077467	0.32731745850345717
-0.5854821034641563	-0.12409381808396718	0.05323837815390741	0.00753636427587135	0.06613794976520926	0.9977820277066307
-0.2567888595043822	-0.6659396552148659	0.09159762616033	-0.4561212071433967	-0.6646641547536927	0.5917558667048514
0.3402035660311675	0.09295702244284199	-0.2400945112066942	-0.7193582965098513	-0.07451083513804388	-0.690631433319883
-0.04870201085871922	0.6862216966415928	-0.16772109427770104	-0.2300146898529143	0.44290028116803487	-0.8665636637853815
0.12360385313462573	-0.34152579029855135	-0.08338311781934449	-0.6289900693732648	0.7165166408948331	-0.3016212790082955
0.7021607885519182	0.5022278860202356	-0.18538317905867935	0.5886600915131605	0.5470512227966563	-0.5951590176552818
-0.07841285144560055	0.49652539414556923	0.14736583489866126	-0.2117341838818618	-0.5637389564917736	0.7983526941831215
0.24310522400028842	0.25934559578896466	0.17822229059691247	-0.7247767651697872	-0.36536957947434634	0.5841264512627031
0.13616778565461793	0.6094482508586029	0.2314171107969663	-0.2051884083831921	0.11074388285994351	0.9724368922836466
-0.5918939957304226	-0.28685057195749386	-0.02988708460583529	-0.8419109690506444	-0.3091791018366621	-0.442260334169458
-0.19564603178281842	-0.5175069065365561	-0.13932304271471802	-0.1321569792191077	0.3849651678937619	-0.9134201401065165
0.3548330068734394	-0.2717771629300699	-0.27998493823579834	-0.47744795197006906	0.13881521592754753	-0.8676253736415126
-0.5354769647054864	0.2653970743056324	-0.06555914321276551	0.01926434897752982	-0.020649463273516497	-0.9996011627269086
0.485409118625623	0.5827500883046568	-0.25003326087410027	0.2113365297211115	0.5081428228603657	-0.8349417601132051
-0.5010787701427898	0.26282995619660854	-0.057820754413987825	0.40415085802740186	-0.35306076896005856	-0.8438069550418786
0.6406248028112508	-0.4017810898752219	-0.2873710818608569	0.3218766104279826	-0.3374338962013633	-0.8846094128787914
-0.1631773958243014	-0.4627784778346929	0.10290924157569788	-0.0191872709154092	0.7078793246532529	0.7060727373035109
-0.37814412673270703	-0.3657578237574898	0.05509216616486502	0.43062761858802684	0.6558446989196979	0.6200222455752171
-0.35648071001982684	0.41480177646543515	0.08738346761356809	0.23284175441133764	-0.5388803256542759	0.8095632847562886
-0.463369259014057	-0.30050486392228304	-0.056752894601149934	0.40163148942219484	0.5323296928019299	-0.7451961116819605
-0.5640540602943928	-0.1440563845967979	0.051671673562762775	0.22772812546979815	0.14767993780508967	0.9624606676846058
0.5993825732491477	-0.3772345752104856	0.30852240665086866	0.21652787264769502	-0.275113267211432	0.936711466018707
0.41381084746016805	-0.3061277408940481	0.3090429182104374	-0.3184520039153587	-0.0034467911402667473	0.9479327195709244
0.38975742275453806	0.07586414704955816	0.2817687619004698	-0.5814255052776061	-0.038921988228403565	0.8126681122358798
-0.36854658481731684	0.3723512646311898	-0.05599456478875569	0.41313094878343715	-0.7070968273811782	-0.5738788163582708
-0.15752440920604185	0.42935574126162623	-0.04063764703316273	0.0500445847414336	-0.9666083684122079	-0.2513240968422002
-0.5479367969314097	-0.042686482643119604	0.0022483697436275715	0.9956204669254285	0.09242639325775154	-0.014044488903314084
-0.5536272260454942	-0.2699915841049539	-0.06319539304727724	-0.3202987600851968	-0.00782483210480129	-0.9472842637194054
-0.6021552267215406	0.09250421242931485	0.05091127391755749	-0.26074336172707147	0.0054069662380547695	0.9653930101421728
0.3732405267048875	-0.6107898984706479	0.2529686407652775	0.03493780255640629	-0.45968905466456883	0.8873924289592084
-0.10435072911007535	-0.5489334015464344	-0.16697043600971112	-0.19691970107845425	0.3008510495846574	-0.9331191120596459
0.6286427182703826	-0.6492703304243168	0.019127230971102093	0.5952445447075282	-0.795955036140993	0.11017945560637583
-0.17267011856504222	-0.4751582939116494	0.11494817454411871	-0.015336247083868909	0.6695829733553424	0.7425789125190678
0.20868559786735572	0.7795331264316937	0.11907426409656427	0.06700616626008582	0.8802222441834412	0.46980738023980934
-0.4406484156567567	0.2878187850283355	0.010424534213787683	0.7315965516233525	-0.6572754036272987	0.18098488732320192
0.07564914905431834	-0.59372617704708	0.2189538973835999	-0.23062801529948157	-0.03002498571072247	0.9725786440139912
-0.5316545112925763	-0.12989213631597232	0.012992954255088961	0.9442251634707212	0.20208673603717134	0.2599995995891764
0.4453437383707907	0.2129907124925413	0.3180102095124828	-0.3471857993743388	-0.01670777369434616	0.9376475195994386
-0.5812048524952673	-0.24846533551083175	0.053138508480708405	-0.5175827502366195	-0.11501614005115564	0.847867551086389
0.10753194200673125	-0.36782505458037307	-0.10777051927910261	-0.5711477742245296	0.7078234277738256	-0.4156635840350693
-0.30352600405719515	-0.6727360602144514	-0.00866689510923368	-0.581172802225117	-0.8069881190761108	-0.1049206825359352
-0.572906769756027	0.16299910795879005	0.05555512344747961	-0.010707620504783376	-0.1367326077706915	0.9905501203045468
-0.32086613649145096	0.4030800196260621	-0.06455838787246612	0.3280341783769963	-0.738537646956614	-0.5890294745123682
-0.5120466879371208	0.40466107664547296	-0.06327971631940377	-0.5398256230241146	0.30052583747918316	-0.7863030698999347
0.07223121753230687	-0.4402252349941955	-0.16316557102595744	-0.4297088175869953	0.5887669405740743	-0.6846194722435464
0.5993222772748491	-0.1506723535385879	0.34500539203999825	-0.01019155974081529	-0.0574655371438576	0.998295469363063
0.34715278569699454	0.7869087367875469	-0.015517789425283188	0.26827295408360247	0.961300138217411	-0.06270300128736891
-0.08758662573121354	-0.42499128978134215	-0.03498826613510287	-0.14330645636403183	0.9718388790280459	-0.1870626974409746
-0.2831993125044626	0.666562014670249	-0.06742110331146516	-0.49033569095586665	0.6864456824677835	-0.5369946323718449
0.5686891177884184	-0.2950586103363665	-0.33065304970324194	0.05871031214047712	-0.15598147647496013	-0.9860136298475082
-0.45574355840739633	0.5297142731078105	-0.02608713849555771	-0.7359915555215966	0.6331974031230244	-0.2395359657319936
-0.5511551175654326	0.3119437498033655	0.060950317131289435	-0.4936898884063321	0.12773769177791738	0.8602054267351456
-0.3194331951373014	0.5936423647817247	0.10548062508727407	-0.35854752864309986	0.3889987833623602	0.8486009758694179
0.01054417846166368	0.7620386418089704	0.12064107497878095	-0.20546943955518743	0.7905686457792317	0.5768739253248215
0.12672556244770383	0.6753903240250048	0.2103101533493231	-0.17266054370603023	0.3893098875736755	0.9047796129912025
-0.4973777334199346	0.22105666513442482	-0.02926200055175797	0.7802313068678993	-0.4622729547218563	-0.4213583072824531
-0.12183008504917361	0.4455087024328541	-0.08159635090475137	-0.07886656398333498	-0.8741537605227773	-0.4792027421137611
0.13920116858401357	0.31272130915285506	0.041387609546058815	-0.7297891740209976	-0.6691216277270304	0.1402997105830257
-0.24050048028128695	-0.7123699976610669	0.0066989078880548	-0.48119207045783424	-0.8755739903089748	0.04271274778006638
-0.08732215687745895	0.4732490278195973	-0.12549565463488027	-0.1630130546231075	-0.6839742722198534	-0.7110597295331565
-0.4987523112655437	0.20919803010507312	0.01746400834529981	0.7856592477580678	-0.4419889020292407	0.43288030319617554
-0.2055390825546206	0.4465762281107398	-0.08425007364771316	0.10239745860327731	-0.8335540812001164	-0.542864950228157
0.6478597218489468	0.6015156937856366	-0.1239730642746942	0.5985431900932906	0.6993138728402543	-0.3907763514417321
-0.15823241061844878	-0.42389881941333457	-0.0018870454981363299	0.05744789779136542	0.997401409530994	-0.04347605438559622
-0.5391796416543602	-0.13657810780953505	0.032598660599297835	0.7878413709224513	0.32096834961749005	0.5256284741210824
-0.14368722818559024	-0.7583784933715195	0.00842522696259714	-0.35701154465199125	-0.9338203347451909	0.022854745712414415
-0.21305160265863987	-0.4313801134199966	0.0609191400370452	0.14504598825325418	0.8752263343235386	0.4614547919333152
-0.09237164131679175	-0.49459741088195563	0.14269915267183386	-0.19816949169710452	0.5738455498800009	0.7946257845322102
-0.21296196361720288	0.6402025843326071	0.13313125241765283	-0.37695236935856485	0.3488450233182595	0.8580291725466256
0.26697116340706356	-0.0404060622985069	-0.11148166361370054	-0.9441167193113327	0.055827888748190876	-0.3248489913093864
-0.5359990937846126	0.11115188537099466	0.007468488523395808	0.9661316092920362	-0.22092173575415297	0.1333540408017407
-0.17615079375908763	-0.6068682811008452	-0.1549332923292532	-0.28977760644594447	-0.14519524792421018	-0.946016531981702
0.4381876400166839	-0.6205090637129165	0.23793941451883538	0.17209500084947904	-0.5582114858667773	0.8116546357466479
-0.1561912566224456	-0.7519320739418165	-0.02257728543522331	-0.42328429247185606	-0.9002646738051665	-0.10175423747970343
-0.02200064085796137	-0.6982362288489309	-0.16856500931715326	-0.2352881915292439	-0.49087377283861067	-0.8388577984772425
0.07347766894036697	0.6744443789584526	-0.20151956653654896	-0.16087514269858308	0.35789383736549535	-0.9197995377458665
-0.6064460491376188	0.267013499407863	-0.0033900509991755244	-0.9228174215250994	0.3750871592399132	-0.08785003985827264
0.40471464540056395	-0.09455997722313496	0.2928545099920181	-0.5363609616661906	0.011612165558944787	0.8439088081135011
0.31129382985436876	0.40255593790536115	-0.2771640245303154	-0.36855716312915493	-0.11275291166255981	-0.9227417831754472
0.3296232972736623	-0.6085242153782496	0.25535405841484354	-0.007024401080579709	-0.37219267040085324	0.9281289101678396
-0.050019512580912306	-0.4201983097802994	0.044176163916124035	-0.2432159951759512	0.9522555640764224	0.18454083660823206
-0.29930130176232894	0.6466994339704288	-0.07803414254870814	-0.5005827666606837	0.6498705532054664	-0.5719135929480581
0.5051842111842696	0.7084482501524306	-0.09723530446914287	0.4190755112028734	0.8491089766677749	-0.321542628048373
-0.39900723079719685	0.4331133250579014	0.09773745766916879	-0.06917311123962055	-0.21496927294563814	0.974168000075272
-0.45480245278611686	-0.5349032049155051	0.01214889095949642	-0.7399614631495118	-0.6655846517519407	0.0972322189702667
0.22497615683538372	0.1756191060344938	0.04803329380748369	-0.933419828741316	-0.3207119420177439	0.16084549592618314
-0.3245660089949934	-0.5703219173246936	0.11255407159115909	-0.3706030697636595	-0.2947463036176692	0.8807825958688515
0.4085996370105164	0.6130127113884521	0.24801222304202605	0.12636430069681232	0.4911022658578135	0.8618878279560085
0.05236057859266791	0.4041495585775605	-0.10504620531115598	-0.42771237292877995	-0.7641792564338907	-0.4827962200346838
0.4841207018241948	-0.1499570218471463	-0.3303936492715817	-0.2968382726000336	0.0026616607112503743	-0.9549240574423107
0.25009979490186834	-0.04322387283924341	-0.03349117292780605	-0.9952554837167631	0.07881755563104043	-0.05704660424651933
-0.4240190668212709	0.32428017226905287	-0.046424833509318066	0.550881803932391	-0.5910800697559458	-0.5891974110885931
0.19833285830792513	0.7722444573401621	-0.13186236719626607	0.048447151563684385	0.8641091512148771	-0.5009673125984057
-0.37249849417750236	-0.48321031980885426	0.10794673153138093	-0.188772737413878	0.10075954865569418	0.9768379430406933
0.774218954316052	-0.12065513134560425	-0.2958972099986827	0.4781082155742171	-0.12562835259293803	-0.8692698379819827
0.2851779254923604	0.15351650839697778	-0.18447246318992797	-0.814714010590229	-0.21207346101197694	-0.5396905855046827
-0.5837811921506593	0.04049040928610375	-0.04813061929192308	0.30139548669739813	-0.034573627808556356	-0.9528721975472859
0.7635299991358901	-0.19911860957078914	0.28875458171136176	0.4894824434156951	-0.18834235465521365	0.851430616686251
0.19230849443586467	0.7993048136382748	-0.07701881146822592	0.03240510454432241	0.9517386443682757	-0.3051941382391039
-0.5441114993112395	-0.09689577477661479	0.022310829241562594	0.8654501027902106	0.25657752717751514	0.43030697429612513
-0.5841913571580789	0.04336187786099793	-0.04836977657997906	0.2927063093635739	-0.027780377287203006	-0.9557987586812073
0.07777506162582579	0.8044303366256097	-0.051409843095081856	-0.051568309579355036	0.968569622705655	-0.24333843802193073
0.17261977730294914	0.40683461623056577	0.20466011806574327	-0.5075145623219361	-0.42185492863187846	0.7513104472986959
-0.48699733390710626	0.29046849255730306	0.06308482955792363	0.35237357056439256	-0.33319197178982507	0.8745375787823577
-0.5415709000700268	-0.21100658236862266	0.05723305782613658	0.30359484396936687	0.2172300090530568	0.9277075476043212
0.37985895373445633	0.7599988453133725	-0.09487478524630226	0.2585089192906138	0.9021683966005959	-0.34534811831296996
-0.23191752481736178	0.4141313448734082	0.018489815296136834	0.25430508751185144	-0.9560797071587928	0.14574126397402465
0.33859890913471397	0.5490219815531726	0.2750765912978237	-0.07757041558975071	0.27408540454681407	0.9585718656624771
0.185948970183934	-0.677991269522689	-0.21640010209892427	-0.05078855045590182	-0.44138980670778893	-0.8958769790976048
-0.4880142376069044	-0.25347152300669706	0.04432776844683727	0.6390231523897474	0.4276788755521215	0.6393279206450654
0.37764240245079983	-0.5081555451256494	0.28757183544398246	-0.05070019484652798	-0.22474036394058378	0.9730987920341785
-0.280326626394643	-0.5936356999402964	0.12365464123627583	-0.3435037155974693	-0.23620188375290846	0.9089630726725431
0.049988607648526064	0.47628616620911207	-0.17844714994068372	-0.3412888264842271	-0.5177307420125099	-0.7845233047476635
0.5347249637658814	0.3295808294595799	0.3264832748358942	0.007769151893326151	0.1558388241715968	0.9877519431313065
-0.560428073017558	-0.06207512792951587	0.03585495655105598	0.6831812522928887	0.16047474062113073	0.7123982272143172
0.29746725595625634	0.05870883546781218	-0.18009413418066558	-0.8684278902318071	-0.08071707373775605	-0.489201138055448
0.5259782733610245	0.2578729442016918	0.33438227464268827	-0.1078055342257591	0.07088609587130232	0.9916416329513518
-0.05270846701182411	-0.7750386789938235	-0.06902228990140043	-0.2529047407449772	-0.9041414433937445	-0.3443362345826986
0.5608767359456972	-0.5833784323790021	0.22045198964417728	0.35477805152052966	-0.5995451425954051	0.7174107304393702
-0.6309206913815806	0.07864631671070062	0.03653258685132431	-0.6212148485102018	0.04549887741846148	0.782318326606316
0.03828537487744452	-0.4255385134677876	-0.12536769655040023	-0.38846703756573	0.7055780759714373	-0.5926659594015431
-0.5404979895751729	0.22647833546561358	-0.06005053739655036	0.17813819148341353	-0.19756671380837948	-0.9639679342851487
-0.0912587329826679	0.4976972110535097	-0.14516743012942832	-0.18397031451927104	-0.5567141972260571	-0.8100766790758932
-0.5644908741604546	0.0077108424128595286	0.03527376637262943	0.711446809594727	-0.02012637964069347	0.7024516822956883
0.28385085902780616	0.08795501846083613	-0.16165360660252437	-0.8953052068194383	-0.09226510013114692	-0.43579322842351786
0.2719114595419195	0.3116983305690938	-0.23330829429069233	-0.5982728296019327	-0.27676490339012505	-0.7519779315987609
-0.48527338759537114	0.3226898467368879	0.0730906809639255	0.15298145887974215	-0.2297261105121206	0.9611569005048027
-0.20460440336920346	0.4238227545064729	-0.037815537302752035	0.1886480605216706	-0.9598199833117838	-0.20774385405296494
-0.18808495994337615	-0.45909110593743624	0.09847542543640178	0.0043720610913787206	0.7194884090123657	0.6944906870352319
0.24521294755050613	-0.32278704794866775	-0.21597623030070415	-0.6221352575557813	0.3210048071937016	-0.7140753707169406
-0.3673937061841717	0.618428542100833	-0.031393882887186794	-0.6290373738265588	0.7109990234369159	-0.3143125371364281
-0.03975002163234995	-0.7007422120954946	0.1621630571829822	-0.22827312383522244	-0.5244075747274186	0.8202975536371033
-0.5322597566179884	0.14577349672485038	0.027272246605717854	0.8337525115785591	-0.2964521252225287	0.46580348526765186
-0.11466315809981169	0.7443376099062824	-0.08911499069517305	-0.34694532531625993	0.794728017768117	-0.4980324477537122
-0.3258032125065681	-0.6141846078614643	-0.08804465955111572	-0.47849787273734934	-0.5757393229380373	-0.6629962426806673
0.2657278554505946	0.2155143338519568	-0.18351927366349322	-0.7459288152587704	-0.30484008643453	-0.5921678176574912
-0.6420070727762484	0.10508216288056277	-0.012064532655553578	-0.9318089816006491	0.14459952388724745	-0.33290088539975515
0.1983389308757296	-0.24122723390537107	-0.06639149091718913	-0.8689599005366556	0.45825123816467034	-0.18685420514366802
0.24049786668590395	0.1192067444120131	-0.04331003341795046	-0.9699404812553548	-0.2056327325150783	-0.1301178010132115
0.0991635761052065	0.7781597454515389	-0.11798908619370195	-0.054979644459736576	0.8179960490647937	-0.5725903443208491
-0.5041471089595098	0.34168723421182934	0.07529217510909399	-0.15218906382270644	-0.04213518398360573	0.9874528419744592
0.1935504384731742	-0.6057809280663989	-0.2430075041462315	-0.1605700607451122	-0.19420381774040366	-0.9677304029363565
-0.5049341213110518	0.198386622771808	-0.01848242221911064	0.8234275022179112	-0.4394237527051127	-0.35899013099210164
0.596376790159442	0.3864278998519442	0.30653180845440153	0.2153354073803343	0.27106996017780416	0.938164025646662
-0.6319190552196163	-0.14989391484500436	0.021811285668485173	-0.8691010073528934	-0.17342798346256422	0.4632344693244395
-0.6019229838996363	0.05532585458653875	-0.050432793628124625	-0.07973279813863807	-0.032433039871594814	-0.9962885018034036
0.24293056410047592	0.10778929212013438	-0.04396774591549898	-0.9691672041025814	-0.19022465697506658	-0.15661899747701463
0.33977381091895836	0.4144258678951215	0.2880581865297515	-0.323634332515306	-0.05832263249480149	0.944383020472228
-0.5408047566007338	0.23224544050833898	0.06111102850003252	0.16442880278298666	-0.11912767896548093	0.9791689154173819
0.3314639454598779	-0.058824024991742586	0.22700900140953628	-0.7436968935476549	0.06553095243246018	0.6652973957568629
-0.5355547496229237	0.20432529662184765	-0.05352221724249168	0.4025708674497252	-0.22416771883834308	-0.8875164959095633
-0.18862940776985496	-0.45195153244307606	0.08983219277590633	0.024959070828188296	0.7905728087112123	0.6118591985987122
-0.6082405758995308	0.1693846871893711	0.04577162682001516	-0.5844105411448645	0.07331082450043838	0.8081397418824501
-0.3639145672568443	0.4583048402159181	0.10569390137257649	-0.06291280281700469	-0.22383145231782303	0.9725952190891146
-0.4851037546890633	0.4916346078629877	-0.02713018879513902	-0.7610131339349565	0.5589388432978256	-0.3293119788762405
-0.6398671884780335	-0.08718676239491856	0.02331164047703332	-0.8470254030618793	-0.12646273528893393	0.5162897860224444
-0.18961669661642203	-0.7173995114838334	-0.07722050157951996	-0.38100137161331854	-0.784144810318119	-0.4898518870841792
-0.5073175514492442	-0.23468451893886302	-0.048936789944580304	0.5070766941697541	0.37790174482358935	-0.7746376556101315
-0.5893191577015611	0.2643854244287568	-0.043351476623906975	-0.7316295360868292	0.14932386995480568	-0.6651470542572459
0.2029335880710763	0.24683150564503062	-0.09232057842389402	-0.8218725983694092	-0.4879861129408259	-0.293930239387544
0.25587962050732926	-0.2917793854514238	-0.21079285869396217	-0.6336459784749746	0.3260161762367285	-0.7015741064167592
-0.48000131239960026	-0.4887336493776722	-0.042135087030632457	-0.7256050722538075	-0.5043516973993574	-0.4681096500286382
0.23458925203210534	0.13865788525588804	-0.03275066346380225	-0.9613865832818125	-0.26614976534224505	-0.07000099923565821
-0.15557337331003046	0.6843747745708412	0.1320426469618503	-0.3325693494528179	0.5574936940532975	0.7606565643543334
-0.5632734716611687	0.35137601241437877	-0.034767867974461866	-0.7798447691501318	0.3947999041138079	-0.4857727573062387
-0.5968924542957941	-0.02273922861539281	-0.05003730097961385	0.05897663617524078	0.1151912802891175	-0.9915910070844766
0.7015429014081129	0.16553341940565328	-0.32421484552425633	0.31552699483476815	0.134237480899965	-0.9393737351300452
0.6525824846091197	-0.28535171493447054	0.3182204861390284	0.22982409643023907	-0.1957626919351457	0.9533403658433484
-0.595920450156865	0.05382910625393242	-0.050581221556164145	0.050268072022929364	-0.016072556484712397	-0.9986064259071958
-0.3896713892132237	0.3793703306085986	0.07353178737080976	0.27015986718943324	-0.5302939586309695	0.8036180458399896
-0.5810769993228666	0.22186372540258872	0.05568142409426256	-0.35966554567678155	0.044797390022704026	0.9320053052961536
-0.3951091899096906	-0.4725430287978617	-0.10254756460643151	-0.1930990437613504	0.02322414081170711	-0.9809043778992984
-0.5662716357751699	0.2715689801818853	-0.05837066399744235	-0.4414464639432071	0.06627590579151435	-0.8948365905479906
0.27346439078708207	0.7911842822359398	-0.07602594521458442	0.16285771129591137	0.94553041764322	-0.2818680456931862
-0.6093917364786038	-0.04291690521778602	-0.049176865570785225	-0.22424842225070005	-0.010702057174852092	-0.9744732480116102
0.6721957022402141	0.5803493900446526	0.12380376080372198	0.6249703916836822	0.6701378791191146	0.4004088316814183
-0.5604372262021072	0.05293673869031091	-0.03453778742213625	0.726272499388986	-0.12118336801829631	-0.6766408559546324
0.29437306974400845	-0.7075099694628895	0.19675133953359453	0.06837334717256102	-0.6218416771701615	0.7801525581132316
0.2875480198473425	0.708170454833227	0.1968638297849085	0.05190484788145097	0.6318259838968378	0.7733704240783946
-0.5048556116316509	-0.45238776895357224	-0.04156966529571137	-0.748246047725697	-0.48203832674263025	-0.4558145495857276
-0.13162289560280593	-0.4807293967581533	0.12412273193769534	-0.12149686626883974	0.682383758593988	0.7208265516016965
0.4565381268542776	0.6983898278488812	0.15695926100605095	0.3644349510189664	0.7443954312285249	0.5595199803777355
0.23611459090094158	0.2543967570180784	0.16511566081584444	-0.750604059189563	-0.37709540671267633	0.5425795799367624
-0.3556053314375274	-0.4674507605733512	-0.10844527652132706	-0.12912593211292483	0.1407826848350732	-0.9815837861877085
-0.337434438105095	-0.5287203714387899	-0.11615543111006005	-0.30537198950483313	-0.12463167153392951	-0.9440417864038214
-0.30815811667141785	0.4107053628673091	0.0678629193917244	0.28743355173580964	-0.7648992791828363	0.5764642625888573
0.5190041151219258	0.7159196751069513	0.046549900299419	0.46527056537597145	0.8658557689458966	0.18389423149689457
-0.12213322155773026	-0.5891431865400358	0.16954319921069722	-0.23326234533395496	0.019124055574545606	0.9722257704605877
0.1252196015255331	0.6637664370874139	-0.21494101326073983	-0.15791854374362269	0.33220318224725454	-0.9298939612916584
-0.08498829312410502	-0.7072993481257643	-0.14328758450497417	-0.2826741212575892	-0.5652106567015678	-0.7750046804518236
-0.5902345583415864	0.14140421806416045	0.053681473809867916	-0.25759719185759294	0.013850091543019877	0.9661531253954166
0.27147602102685164	-0.29269198605891655	-0.22558840861418572	-0.6168548971615662	0.30666697135710674	-0.7248761304708916
0.17866266626264757	0.33811485874295605	0.159999908415036	-0.6707375289359446	-0.5184079231313542	0.5304379252198499
0.6030839937731356	0.4549723213789493	-0.2794131955301611	0.2721995141408198	0.36393003968204557	-0.8907650367625154
0.6858820370908156	0.53303041871845	-0.17096717357216903	0.5989508383648765	0.6000461276496172	-0.5302853363187701
0.6610008141515932	0.619610709198826	0.045978956075364966	0.6333946431762973	0.7535466668051608	0.1760075195620993
-0.46120729862589843	-0.3348074453102882	-0.07262979995520069	0.2171814516424973	0.34125994623665057	-0.9145347812724324
-0.516739178383173	0.21609591700813277	-0.04695269463094638	0.4755848836503549	-0.30404163054395006	-0.8254560589997844
0.7520152868368419	0.5287067753814261	0.04698165709110712	0.7465772870665465	0.6530574708837166	0.12703658590862296
0.09298829804458314	0.3533126210385982	0.04081337646280554	-0.5935595261088109	-0.7865905331966485	0.1701834952364545
-0.6466010477036952	-0.058149417506139556	0.011789052855022348	-0.9548080177401125	-0.09447441138857857	0.28180886226656926
0.15758167692214503	-0.28759894716095985	0.00317843047894514	-0.760371628505989	0.6494126962429626	0.009906387918713067
0.31261928677327827	-0.794600414780135	0.02290866858437094	0.17335953238556684	-0.967386299013389	0.18468952599494157
-0.3122807390518398	0.6637935867953016	0.02630250487213961	-0.5783330920765255	0.8016061550604346	0.1515203180383103
0.7237944845840875	-0.3795656635560296	0.25213607865539617	0.49818906206913816	-0.3840705722890503	0.7773657144074685
0.27638904536759357	-0.05990114512423114	0.13970318480080962	-0.9145531315835577	0.09405527530401027	0.39337790316462085
0.6502758617857167	-0.4323947225910649	-0.26988017465255865	0.4056538413932944	-0.38390780640902256	-0.8294936751664088
0.2213052022072139	0.19082454187373624	0.06011604370763333	-0.9174817526953613	-0.359507602272272	0.1702395881676501
0.7382451631094888	-0.5462962241434872	0.03735488509118013	0.7262673185195735	-0.6821774920365503	0.08467379411075071
0.057441969934291265	0.41074530897850725	0.12008854481721422	-0.4341766639449854	-0.7406225334133356	0.5128049214721089
0.4347965137977843	0.31178598890055775	-0.3152739584528935	-0.24075743796109894	0.016815527378640324	-0.9704396395991798
0.22769306147296933	-0.801648643700883	-0.060144557001905026	0.09036842790079205	-0.9719674261200134	-0.21705499257187155
0.2077856903440198	0.21763472973845777	0.051967368006144384	-0.8866606985754403	-0.4456464813334894	0.12341806705986348
-0.26805817882262833	-0.4122920135713571	0.04761040982353555	0.2602340898436573	0.8843695229011818	0.38751614862709916
-0.028914398171771858	-0.41140628724852035	0.026799625883300628	-0.2904614266862638	0.9489683772368179	0.12284615831152927
0.1686306084644407	-0.30993334186595006	-0.11280959781632145	-0.7128448516823668	0.5833624403295932	-0.389282006574472
-0.5930169754321846	-0.2879813724018966	0.026909512882499296	-0.8390225521522058	-0.2901350165674002	0.4602855951921959
0.4229924883791038	-0.7384697994443539	0.11118426672419822	0.3260260992713512	-0.8611922457844875	0.3899421731418359
-0.00794269550509163	0.5796126721354351	0.19689760567387884	-0.17078540446281168	-0.10934541585922773	0.9792221023103216
-0.5188618835962097	0.23167589727913415	-0.05444455253618719	0.4051541134402955	-0.31370193315593525	-0.8587439906611499
0.21390414751021436	-0.21621628622651792	0.07613725581635783	-0.8914039802016275	0.38427294696699277	0.2402774361233271
0.4388142531896531	0.08193481102967554	0.31165543107283494	-0.4387995356819352	-0.026246254302557726	0.8982015929736508
0.2298925862610513	0.317269195082784	-0.19901247409452175	-0.6370856576451402	-0.3444589859438286	-0.6895432341959479
-0.2446000085731728	-0.49963828960331214	0.12672219718583091	-0.052099081063013086	0.37147321458840443	0.9269807638757923
0.275411269235627	-0.6581734827566709	0.23159760712019373	-0.0016742055275066475	-0.4718336248949271	0.881686014097062
0.05387215277325058	0.7565221822213215	0.13882644456330798	-0.14388467808012922	0.740989415093971	0.6559206401177441
-0.38880644463029174	0.3713566558356763	-0.06701358119987612	0.3632155520964817	-0.5747701136580194	-0.7332896966143709
0.2645098554892867	-0.18667028353625004	0.16650804699325705	-0.8290933826423234	0.2555133562888859	0.4973098507135144
0.24322446909571588	0.6730332736743069	0.22275594466449092	-0.01190918104634124	0.5271099386150309	0.8497136482486697
0.024554261811658755	-0.3900387605745244	-0.009923336746711437	-0.400753802476014	0.9145915231039218	-0.054025324316147316
-0.002022486334746584	-0.42541196491085165	0.0961038889153821	-0.3450525713430884	0.8136133910853518	0.4679444121432758
0.026651474236620124	-0.4148984641079424	-0.09995977362017773	-0.3807582855330228	0.8002234993983085	-0.4633200610902551
0.46056008529834236	0.33356408675386073	-0.31995372847507314	-0.18297937183501056	0.06359591087153478	-0.9810576484607234
-0.5487563838451349	-0.34018153234742177	0.05634017139967085	-0.5870313308543639	-0.17612865132065647	0.7901727119935991
0.368033733236272	-0.6072283359479185	0.25501414600686134	0.03151125229879978	-0.3734247052028694	0.9271251428597495
-0.5674811426344005	-0.08341065079969337	-0.04431585382134599	0.4563020925858941	0.08458295907768026	-0.8857957571220343
-0.24823750021723484	-0.646232612174841	0.11342044314196552	-0.42894076499972617	-0.5283976933654239	0.7326702517282573
-0.4247070029551252	0.500122194457848	-0.08625346995605795	-0.515674008668431	0.357420049115899	-0.7786727331002545
0.6735480887838716	0.2361209002161525	0.32206058714117	0.33062354614702416	0.16287353902275348	0.9296022165525262
-0.33129497259601365	0.39710779555937603	-0.06272155038519274	0.34234531325626766	-0.7467295716724021	-0.5702583916799644
0.12722246317566505	0.341282390192289	-0.09007089662791247	-0.6562471317204311	-0.6949649652561019	-0.29387650327185466
-0.6326092124140804	-0.03484176346601821	-0.03736231005357382	-0.6114477535419685	-0.030035126376349836	-0.7907145729478089
0.4420863334516115	0.11621190384227835	0.31409467172930633	-0.4142698214202114	-0.02543131916628191	0.9097987486614437
0.7257444668272656	-0.3354657813359115	0.27053882535339313	0.5176417175522018	-0.3193744367611307	0.7937550134601468
-0.12428398952325952	-0.6693145761414806	0.1525594380587868	-0.26785373240984245	-0.41589783845760114	0.8690704033623579
-0.523900951175923	-0.219902992689938	0.052850653544239165	0.4391202932936775	0.3406688133665211	0.8313351475891787
-0.15051219214426972	0.5013808469814099	-0.1369464144972244	-0.13084250518390372	-0.5291185954778894	-0.8383995173881632
-0.5734522952753696	-0.34596211419262785	0.01609742268737574	-0.882741875017028	-0.41876854035737143	0.2130720340597948
-0.6327739695260243	0.10848883511508724	-0.030916024652114675	-0.8713931010692031	0.10856739096321763	-0.47842155577318807
-0.38663314044841834	0.35544161780063127	0.0492619640162614	0.45278810685291715	-0.7620659028584931	0.4628590390097406
-0.038542842217197046	-0.7880379612606471	-0.03753905629919045	-0.2243699678333309	-0.9425112225306733	-0.24765038449032195
-0.5189586801062602	-0.21317677671234997	-0.047259482139245655	0.4996875857848492	0.360725868735886	-0.7875208976511352
-0.12534854019408576	0.6067617635445337	-0.1685199052039474	-0.2601089520869685	0.05946099893735719	-0.9637467108372352
-0.33332691276389886	-0.6306060937544354	0.06357661196808378	-0.5520659823584607	-0.6730784950063147	0.49212649865925917
-0.13796685517452978	0.7602407657400123	0.013886031346850639	-0.3720750530311792	0.9208447433985891	0.11664095964553634
0.7101620166476121	-0.565684821119492	-0.07666898982805863	0.700374161142964	-0.6789470180978223	-0.22024300447315745
0.5882677509916996	-0.6676167872566489	-0.07421547919489724	0.5544056083003767	-0.7906741337476527	-0.259747638502236
0.0778366201537677	0.40594194040201853	-0.13135274799878208	-0.46844037208096356	-0.7000469680972556	-0.5389785341388733
0.6581973717582843	-0.5516541653349507	0.17950142986825648	0.5402022004975563	-0.5995275560105844	0.5905491445778022
-0.21916917423891852	-0.45653628115441974	-0.09741655972591277	0.03190658556073181	0.7044290350634556	-0.7090569119312113
0.1568294742704402	0.7991789806949829	0.08007273179166506	-0.0160145304917387	0.9356652926904127	0.3525251691265381
0.18832842687367451	0.3164902226351156	-0.15124044916963947	-0.694803798966253	-0.4886345166490593	-0.5277158232242073
0.10779460563465916	0.6919712804386973	0.19926094445499198	-0.14223768935737421	0.47415336552908094	0.8688768760208323
0.3641919311942059	-0.010406678595575864	0.2586924873352812	-0.6555305415673689	0.01726324046210423	0.7549713170718079
0.45831759644446274	0.4293976001500412	0.30819019275474313	-0.04582988106189514	0.1890537240140939	0.9808966874438182
0.18815624841941322	0.24828580227994776	0.03506697116080504	-0.8333431285231366	-0.5448837440960828	0.09295663270098582
0.19239363309841426	0.25392161306407296	-0.07240317534184026	-0.8188153464698301	-0.5195973671980676	-0.2440491843590702
-0.4170152778171723	0.32822421150805065	0.04406436763442041	0.5459037043005571	-0.6514132347417273	0.5269249882423966
0.024378825636385732	0.7597590037128426	-0.12766900182303292	-0.17637960687975235	0.7673666142655926	-0.6164728003630859
0.1227169014800568	0.7672875411454008	0.13672640441635706	-0.062111889811077514	0.8209226189894515	0.5676514483163022
-0.5326986996688042	0.1905855744025221	0.04776571961272668	0.4726571027774956	-0.2549304744998609	0.8435672565748737
0.7212144625797993	-0.12682579421801798	-0.3215900755619816	0.3870597366324	-0.10108443976279535	-0.9164969701618761
-0.5537423680839754	0.19265675115775846	-0.05669771317029078	0.1907238606940187	-0.12218974251527973	-0.9740092791067333
-0.5646351426770383	-0.07112963516626958	-0.040792882540891376	0.49004150746353276	0.10626383609078908	-0.8651978491085947
0.24688073021476392	0.13144505647242455	-0.08885281328624263	-0.9427162992174041	-0.20397299790128248	-0.26397158051010716
-0.2508035238918718	-0.4933493213737551	-0.1235417714998971	0.058878128327300966	0.38865595053882074	-0.9194998195298576
0.2297703149240297	0.21284044610951644	-0.11778483963341263	-0.8658473779036326	-0.36613826532179494	-0.34095613918002887
-0.3423600305389251	0.369646876332429	0.019252018910604518	0.4439602790411832	-0.8762617409027869	0.18725552612324248
0.249619525115927	-0.051652827967757775	-0.035252062888005406	-0.9942750742789225	0.09231688445488544	-0.053802132970592574
0.1596159225990877	0.5370109798992874	-0.2394566206109815	-0.29296507257885007	-0.10238273633639947	-0.950625710544976
0.35197476906866787	-0.2667366842928472	0.2775424638458887	-0.5185492615415604	0.11714842076630372	0.8469845989548236
-0.536924890590357	0.1808476856335425	-0.04720456860813741	0.480292940850767	-0.23404829044238723	-0.8453047312714608
-0.04239426530978733	0.7077207481517567	-0.15688863612024717	-0.24847090272724096	0.5344893660766128	-0.8078262981909727
0.27838766899315903	-0.18039392788541467	-0.18500695651633664	-0.7982778763009626	0.23186184429765083	-0.5558709538798712
0.11784212666669305	-0.42407516747469415	-0.17922879882061335	-0.4628493579241016	0.5278867758734949	-0.7121137716173827
0.16939349793629954	-0.32671985516715885	-0.13627102928193469	-0.6822501332424051	0.5722250972968039	-0.45507493197756343
0.1871925672321595	-0.26240138409558006	0.07302143541627205	-0.8137328785046849	0.5412023855848298	0.2119876889769038
0.5656822944569836	0.11698563707129966	0.34617114292235485	-0.04428318456468574	0.042347580063681424	0.9981210758357728
0.21664238668142224	0.2671346054034843	-0.14544191028893547	-0.7655866895974596	-0.432415529171773	-0.47633373892923003
-0.3923233644448713	0.5414314384929566	0.08849250211279726	-0.532561501970679	0.41580529165150915	0.7372138129832746
0.44907747246237195	0.37894129093021334	0.31439501214797294	-0.14493566077994954	0.12361423685555771	0.981688939879073
0.1735853865095662	0.29194871522395405	-0.09360152780786876	-0.7406691669210095	-0.5823912765745475	-0.33500684491873584
-0.5866533423301529	-0.06235384782346139	-0.04983849372070764	0.2425219638885109	0.059993428869041826	-0.9682891538813159
-0.32238749838249403	-0.45695721903339387	-0.1059566896605362	0.029558050298016784	0.4213206291574822	-0.9064299471602438
0.43243240216958184	-0.5386604925868732	0.2795376333293867	0.06873320579600097	-0.35167228926401994	0.933596458532705
-0.11625129276485183	-0.4260908882813814	0.026383362175837883	-0.06242782747709179	0.9782291010407457	0.19791561897309906
-0.351023121345731	-0.5613790884811237	-0.10324118087558229	-0.41764247325737897	-0.2930998572584362	-0.8600390910921101
-0.371226623854341	-0.5726199084899578	0.08500262045464067	-0.5165277849744871	-0.44815004991024876	0.7296304407813533
0.4015761801450926	-0.45498279697191923	-0.29918151055348435	-0.16110920267354234	-0.1127146200697144	-0.9804790865879984
-0.6488075547531401	0.02991090752040894	0.008125335161461165	-0.9933667560752505	0.04321787285685306	0.10655845058118064
0.18255610942493075	-0.5791505134071665	0.24498778621442743	-0.19747433291047903	-0.11562363371689036	0.9734654915135224
0.40533581347092884	-0.043552296335561846	0.2913907502528215	-0.5465149532896698	0.025664862071988842	0.8370559842003489
-0.3835087462138318	-0.3396538435338255	-0.0003443153638489329	0.6082909954803151	0.7931921228658851	-0.028780567073606295
-0.04059698974139329	-0.6402734072485183	0.18591990852692095	-0.2304494665438118	-0.14563170644573328	0.9621249656086133
-0.3782875421220419	-0.4362702082744635	-0.0991990214884239	-0.013569668800735624	0.2590151558968559	-0.9657779315683107
0.32418655791379025	0.06969135924020224	-0.21937090995596426	-0.7716724686672103	-0.05584024677021207	-0.6335640993156854
-0.34936252037917936	0.5678331431810381	0.10143199042070501	-0.4431689754218245	0.372268554630651	0.815485979313425
0.726480835846117	0.41884402169382295	-0.22792447921172662	0.5562289345646946	0.42642340623299585	-0.7132828688323269
-0.5125310308045528	-0.28010889046433274	0.06649544105712527	0.17262908711898897	0.23245599912752068	0.9571642527539823
-0.2765961107277414	0.40027398185530505	-0.017021958682975208	0.34178814809005015	-0.9381022487945045	-0.05608059050926023
0.5944674793383353	-0.67126891151597	0.040784813056901806	0.5666966019236033	-0.8103533138295149	0.14893779954653458
-0.23991463946237246	-0.5312025686130044	0.137192887531345	-0.17672098452322443	0.1830620838455695	0.9670873626964938
-0.5490723529710099	0.05416894108522521	0.015612944558224925	0.9562831593426613	-0.11701767604088258	0.2680100420723243
-0.5629761145392007	0.11891052781110618	0.04721211649724221	0.44556628026944256	-0.1567124930318622	0.8814260515860596
-0.6093634853751649	-0.073411754737884	0.0491857626322292	-0.27835687820423827	0.0202377382107731	0.960264485602015
0.3987055610261131	0.08682459350888772	-0.28855232626213034	-0.542679832308942	-0.05064821932811772	-0.8384112102566552
-0.09568456263870159	-0.7138929459839127	-0.1340145946333486	-0.3083039200624075	-0.6201173245700226	-0.721389767492075
0.5839634080949787	0.6269902062273451	-0.15934657872930283	0.48265880897567054	0.6979060026178128	-0.5291197271206328
-0.0063640394258285896	0.45305417723174457	0.13259623822960823	-0.3003351269251023	-0.6550720521183689	0.6933104773968958
0.01272538165098832	0.41701825510132856	-0.09186768683086713	-0.35494331032369597	-0.8518794745346343	-0.38511895217328995
-0.317152911782065	-0.38145527350803243	0.0061320610138133535	0.4328932133132103	0.9010278077034413	0.027429101561925462
0.6551911890868838	0.5926381687993301	-0.12854885961842477	0.6031214193573645	0.678624362675922	-0.4191819746781321
-0.5307604435061293	-0.17774145327634733	0.04141305231005826	0.6082564346216903	0.26714907224429474	0.7474325942453416
-0.5541399438756924	0.0398256534632267	0.023762247454174854	0.8792645298276625	-0.08396632574638185	0.4688747623060898
0.006005190328817356	0.7350074908068239	-0.14919133033266574	-0.18826010514095082	0.6796802236912779	-0.7089378860910829
0.22728835772519684	-0.6409262811545255	0.23698492705037827	-0.032986116821866446	-0.39015752709243184	0.9201570627616422
-0.3214554929318817	-0.5901067628149729	0.10613807059442067	-0.4662438369156652	-0.4228941128603785	0.7770310507606446
0.25266118241226676	0.6648236142537629	0.22756484015340786	0.003490796245850969	0.4981096158003744	0.8671070435585055
-0.5491710404270568	-0.04466091822507759	-0.012125936643160641	0.9583852296690811	0.14846837504373242	-0.2438337408235715
-0.5344762040448249	-0.3527887028147868	0.0629597439574803	-0.5687727549183584	-0.2106034358594872	0.7950746795532855
0.40825941386066084	-0.4184844990184837	-0.304358901616365	-0.17353830454687602	-0.07566207046572951	-0.9819163446790335
-0.3869917874557881	0.6024759982101425	0.025989172111361387	-0.6541614631421147	0.7390127072809375	0.16103725847475975
-0.6058327337153163	0.008931698770813444	-0.04966726300619461	-0.15674441005902118	0.000992765605503182	-0.9876387013132388
0.1986612239540817	-0.29668977583037603	-0.14604007976433514	-0.7164891260055175	0.49133588524857946	-0.49520943062793665
-0.05237800568170913	-0.4379153825117473	-0.08900749978886947	-0.27988531167196035	0.8468392993672893	-0.4522470711429847
-0.20036042113806657	-0.4996794588041536	-0.13032955650845884	-0.07262819409213493	0.4520397714725969	-0.8890361018709636
-0.5494547490185059	0.19957175650896794	0.05696077326106885	0.1818198037299054	-0.19296480151055767	0.964212707004845
-0.546419479357637	0.32711181696485797	-0.061038908615024805	-0.472350420709926	0.17687206435346434	-0.8634821091988527
0.2712291666257691	0.009061643325679781	0.12021097263394778	-0.9374378246060314	-0.016974452855796827	0.34773868485999354
-0.5756122975457175	-0.16454865598709428	0.055761374579563545	-0.042102834825435684	0.06239933837264027	0.9971628121176193
0.05359014761868412	0.3862781789617562	-0.06753291859559499	-0.48178042231087914	-0.8251861515721111	-0.2948820780101094
0.05469038012468659	-0.4180328264340254	-0.12780333648618258	-0.4179901402132743	0.7142326076856389	-0.5613875887504624
0.7333798644507641	0.5173212843381194	0.12474074863130286	0.697294374647374	0.608763196775864	0.37840180408708224
-0.5534740016562154	0.2555695245269189	0.06308649806864494	-0.2274852902281619	-0.016341248248487913	0.9736443941889104
-0.3252560690284486	-0.6502815891718642	0.03886702809067761	-0.5926085520450406	-0.7679260062380532	0.24311469101301514
-0.5863871194936784	-0.10076810888865324	0.051925078358723654	0.0919824256075503	0.04648390212774543	0.9946750626321793
-0.2739188274367148	-0.6288433447825088	0.11066356103532343	-0.43960856892095623	-0.49119322727991976	0.7519797335072307
0.7249711317858617	0.5633888924738588	-0.013719096031530821	0.7237787574651297	0.6873974719870873	-0.060241395634511884
-0.4839367720148587	0.43707965945430927	-0.07176440431511187	-0.5126095193179988	0.26907683880634903	-0.8153705510518223
0.6972688778298918	0.48674057464934295	0.20408334671556166	0.5969972721246494	0.5309709046087475	0.601385197302607
-0.42901742994800507	-0.3133813355946069	-0.0387209457374553	0.5607090440371123	0.6711245887872217	-0.4849712922020952
0.18879086242336743	0.30903144626026346	0.14427510351765932	-0.7108048826585927	-0.5055982656581739	0.48900594326874147
0.017222898987861418	-0.803017745356867	-0.0023851805376159108	-0.18486150687649175	-0.9827636816140508	-0.0013301788411615861
0.6451291686563261	-0.5987238224494122	0.13260304688549637	0.5756413758350025	-0.7062256137666097	0.4121679134609598
-0.394482082915788	0.44788160297579044	-0.1008071597706454	-0.1507851477399648	-0.16212720118730306	-0.9751813215275446
0.26747524235712083	0.3797389178985402	0.25228505741911306	-0.4621780948518707	-0.22427964801978045	0.8579569034183583
0.2522875320956956	0.025071712575716103	0.044097394497092976	-0.9917982473496246	-0.016421840566839156	0.12675393369284255
-0.5741000510425084	0.002384060248502036	0.042773570941765315	0.5893291746205972	-0.005309716866173077	0.807875566438178
0.4015866383141755	-0.5451359512781307	-0.2784950239079689	0.05476639773625398	-0.3304431431734121	-0.9422356238270074
0.5680848517036621	0.659730821751674	-0.1244980944477971	0.5015840313471532	0.7558731413205284	-0.42079597636832766
-0.47525385824653665	0.25654931798878916	0.032153484254520796	0.6983772810937471	-0.5117883493988995	0.50034174188414
-0.209265624681427	0.5049031642625166	0.13216971205297484	-0.07869796064246087	-0.44727347974402853	0.8909282043511619
-0.4961105498364148	0.4037874160923061	-0.07366321889073232	-0.4487608302084997	0.12987266607313624	-0.8841644687939191
0.34068653575625796	0.7335864698625633	0.16016084012417842	0.18199428103931828	0.7423082981631453	0.6448693450204597
-0.4872311622734608	-0.47724899788158603	0.043487965173288595	-0.7382540762987659	-0.50412810870003	0.44814703931498573
-0.2336085263276683	0.4168197389814308	-0.033403466709792676	0.2252493541494523	-0.9618759260864496	-0.15510458172017264
-0.24191290822192707	-0.6436644197949758	0.11831477277665715	-0.37471668572464445	-0.46714665607252315	0.8008504274580857
0.17612474647189072	0.39419245248197776	0.1997797099884021	-0.5271803785145727	-0.41620414330232475	0.7408474604176016
-0.6368341771016378	-0.10987839983726379	0.024180349774817554	-0.8709155356640139	-0.10267421384125797	0.48058728192820893
0.172720460193987	-0.27690370706980927	0.05634990706584348	-0.7912297803013653	0.5864310237191819	0.17336115246480335
-0.061427882231737896	-0.7649611397326952	-0.08550351447416717	-0.3033070984948407	-0.8429409086691353	-0.44435957117484653
-0.4834498820217139	-0.245060482152196	0.031952091849085124	0.7362993351906664	0.46093702602708986	0.49537899333246294
0.5917290627276413	-0.4623379740965245	0.2801247437531017	0.2885548679623443	-0.37521354186705813	0.8808807445817013
0.0716980554667101	-0.7028707918130364	0.18701453699572138	-0.1755964087981835	-0.498719717781384	0.8487900472515201
-0.5903747416100623	-0.15940857746548515	0.05397088461852152	-0.1609485001164199	0.03192219003560397	0.98644642738144
-0.32108288662693185	0.401632589532617	0.06281565966966	0.28325098455917386	-0.7607826599755989	0.5839337496897323
-0.35243096732984214	-0.4510271041867393	0.104042100477809	-0.031245926126158133	0.2909266204876301	0.9562350096038974
0.27049971669295203	-0.17769753819987377	0.17173500489941879	-0.8329095704215523	0.22981036886146639	0.5034370286976728
-0.6360607286114891	0.09030511853037887	-0.0291556762506276	-0.8589025088566297	0.11135830691009675	-0.4998857947190586
-0.3951072922342639	0.42136542408070127	0.09479487872195559	0.04304935515650023	-0.26687229469949236	0.9627699264842233
