-0.24997365947113673	0.6592992569574297	0.10375889410973238	-0.1107078376526351	-0.0681685537405455	0.9915123917345663
0.4385962759555788	0.058243470132500884	-0.013888154001191068	-0.9765997980427061	-0.16884533997061077	-0.13320692787221683
0.44831499151521476	0.38204205493670934	0.19757473932484593	-0.4454883084820419	-0.21218154149323595	0.8697810991596466
0.5269251966916365	0.7197466868052065	-0.09854943015928228	0.4591811737328742	0.7888716608604665	-0.40845336622501827
-0.2576005785487058	0.7245043982655033	0.12043199906690785	-0.34847848265867737	0.4849492551062495	0.8021140611507813
0.3374629404442129	0.8119759156049909	-0.056575900813087075	0.31866694889055536	0.910536050515865	-0.26339224816944307
0.6588445522766676	0.3359121686468427	0.24918692146010024	0.09935569288620545	0.16420616364568197	0.9814095893722815
0.6713358105256618	-0.5323167967860168	-0.1427978758748282	0.5323270080596822	-0.49243378102853874	-0.6885760145344622
-0.4730567159046346	0.4174788721733389	0.027006368580544685	0.5728381676189586	-0.6904824922591644	0.4416903458335117
-0.40543449910952833	0.465791555429871	-0.011076961268570624	0.5129119049185267	-0.8380739911037944	-0.18588534968685816
-0.008751379113131544	-0.5860799837722864	-0.09541418872823917	-0.16684899705578032	0.7460065645351274	-0.6446980827115713
0.37001579963524484	0.6074593538806295	-0.2097617110569682	-0.019476878281284103	0.13009195671020962	-0.9913106142938877
0.09319231616081551	0.8521024604946215	0.012662021971339863	-0.06869920119399522	0.9950616159905674	0.07164356312710508
-0.2679670796127058	-0.6994996184745321	-0.1025173528709308	-0.22705465864915148	-0.39002011840074047	-0.8923735144144463
-0.1117454742666762	-0.7361524933924063	-0.12529204067545957	-0.1681756102693847	-0.4749726544312395	-0.8637811885269681
-0.29697607307142304	-0.6475219269216477	-0.11923413614103893	-0.012278968371947196	-0.05088094018777822	-0.998629238937719
-0.5953387550372777	-0.519301719682272	0.01801814994101782	-0.7006594345786145	-0.525380400713647	0.4827543798682146
0.21503079326082128	-0.607499720913088	-0.17719634949666618	-0.27321374396009374	0.2296748325025905	-0.9341326037700506
-0.5871188677305976	-0.38400049841550316	-0.05194376391731999	0.015129465682245128	-0.006762045362578833	-0.9998626775766182
0.1621416631940356	0.8641348056067992	-0.030506736268400687	0.08951951287661264	0.9865374177644471	-0.1368582484360782
-0.6000482675344444	-0.25012356108866035	0.03908416480743303	0.4546533316055534	0.489355033898723	0.7441921787132338
-0.6405302507959758	-0.06055971572257618	0.0424782506178766	0.6811376297215431	-0.12212476412902504	0.7218982416959798
0.7260264698774994	-0.485342053555369	-0.15120056436863463	0.581013967505672	-0.47777030616906657	-0.6589069009400601
0.46765755137578685	-0.05134378443213247	0.1019209526344172	-0.8893718295849773	0.044107493270496685	0.4550519506364791
-0.5235507973973444	0.432253852493838	0.06515567367592276	0.19563273880424883	-0.2780122697394518	0.9404451123708748
0.4180825540236103	0.23803278950451162	0.07450528236749113	-0.8186905040971559	-0.4113438164631965	0.4006770809001133
0.1519592116003548	0.842253155149423	0.054176754297629394	0.09500531675118443	0.937108661577195	0.3358591165742047
0.003981482892053524	-0.5869619979427096	0.11938010486903136	0.10472158101697294	0.2987314681978984	0.9485741406857098
-0.7256160416331391	0.014000878295722295	0.041994397059963426	-0.6411316792326803	-0.07837063412512954	0.763418766858079
-0.576181695545155	-0.3288243434849026	-0.01430169898282763	0.693421272775913	0.5866949989165295	-0.4182773203368408
-0.19234781882965968	0.6520720210403556	-0.12241426490107472	-0.046011254336173646	-0.20770895848732285	-0.977107953625659
-0.5513209086661373	0.3757351049473829	0.051686923103565756	0.5129471736295474	-0.2910269446608346	0.8075818933995724
0.3665917451777491	0.30571522891066	0.05610114697757343	-0.8054033748819779	-0.46671082740057007	0.36538528612383203
-0.5369045778025423	0.4358601739535627	-0.05441039675793455	0.1057531598590631	-0.10898028024322819	-0.9884025332312389
0.26158574584410355	-0.6273552165944072	0.19304281863754988	-0.17245965927623086	0.08717512953868761	0.9811514473883426
-0.5233654178091365	0.36099730357983817	0.012551748106029569	0.7635633706541803	-0.6109334088006476	0.20912041747865598
-0.4530050953179118	-0.5134552455979211	-0.060419344285778	-0.23003042834996953	0.07001990682225367	-0.9706612254961732
0.2938934376295582	-0.43641359694783277	0.12022587811207544	-0.5769272420340923	0.5707438182313055	0.5842999669259669
-0.6031174721555708	-0.47054885898728116	0.025414528323652943	-0.7708135446439942	-0.5217334863556252	0.36556893824361697
-0.33379259416719986	0.6642259883465477	-0.07775417894645092	-0.42891907630606885	0.3521691545675519	-0.8318685668733521
-0.44921758366574904	-0.4493121021751008	-0.015764040606281095	0.6509162706714634	0.7449380999898388	-0.14620272144759205
-0.31843536980264586	0.7429474858054478	-0.007063769583256529	-0.5157025891024969	0.8453407824884317	-0.1394625435549895
0.008606685537166474	0.8316454530408367	0.10868557325295464	-0.18014537288786808	0.7520732923040527	0.6339821824231617
0.7904691973205735	-0.22037622854091035	-0.21815902745487759	0.49388626121539814	-0.1379961678387979	-0.8585065047187942
-0.06721847501217008	0.591992961833538	0.08939347686964365	-0.04165945031655277	-0.7261582917486774	0.6862642534213519
-0.04745505412910231	-0.5599636756397948	-0.04388217000769693	-0.042289963121927315	0.9454474352681383	-0.3230181204886883
-0.021649182529144547	-0.635363856879497	-0.12650712774561462	-0.21227107917929428	0.46317385634038466	-0.8604713636994752
-0.6551743492878536	0.39067255923585753	0.005158743907060273	-0.8838954323017917	0.4363360669419335	0.1683439973437479
0.6105316929606353	-0.43341151478743123	0.22524959480748574	0.17654215630020437	-0.1412428248978537	0.9741064271750541
0.43009449358204277	0.19210034698283787	0.04274740624067027	-0.9666970758378373	-0.17157224304115096	0.1898939940714401
0.1712650919931678	-0.5823929442487559	-0.16707898078401062	-0.33339534462886994	0.39085101609776035	-0.8579528118697122
0.9318212256857659	-0.16462239957138472	-0.05541614403344633	0.9604238090047796	-0.17310927831688214	-0.21821843381657627
0.4283540786808394	-0.1482192160651574	-0.0015977726204675464	-0.947300377778952	0.3131945518396984	-0.06731394326427517
0.805375619160715	-0.03637189501665529	-0.22628681973056353	0.43785916956790294	-0.015709262889034542	-0.8989063169678971
0.5511194555017176	-0.2895744889275275	-0.21896549690440598	-0.3297845828998493	0.09150348759846752	-0.9396112178123934
-0.6319570446910288	-0.3736169637602109	0.05425079011746268	-0.4581563061470007	-0.22432165690670378	0.8601003391351301
-0.43296458440023533	0.5362338861756181	-0.078250311491125	-0.13286643231702522	-0.22977709576865243	-0.9641312138000036
-0.685481552059871	-0.08295748502240223	0.06147177722570393	-0.0423594382448123	-0.12061864070451156	0.9917947476701922
0.38807664473344006	0.5344320655605235	-0.19346236536997313	-0.034523655510986136	-0.08202027395849129	-0.996032525508044
-0.1703894029329194	0.8088601263453027	-0.024888224704542165	-0.26103370205497084	0.9398399178565013	-0.22036863478036545
-0.5733773983613115	-0.23065382322773315	0.011789043214393606	0.9413652743509655	0.33684872973238955	-0.019088046621079616
0.13935228424686869	-0.7392386523103482	0.1561415563674742	-0.07775764515260598	-0.38356457201624966	0.9202347351161612
0.5121995544235601	-0.6918500522111527	-0.11270650314301188	0.44492310555326764	-0.7132993614303096	-0.5415232692396041
-0.12242458992329747	0.6014557201438061	-0.1148000934302065	0.013743333356954462	-0.6317208572873805	-0.7750741121056338
-0.618965074505471	0.45541659385974786	-0.018372524936707053	-0.7186992566598652	0.6254190313463359	-0.3038460361866977
-0.5026708631507023	0.3965526379220643	0.03356431788525662	0.5899361003843719	-0.6702709963147829	0.4502357037846591
-0.26378531695892554	0.5726065267702349	0.08173464533753709	0.18750948352043953	-0.5860866538570217	0.7882528958149008
-0.2736858207470045	0.6881825380707436	0.10172974122260435	-0.28540481927824374	0.018091147064036167	0.9582362962916094
-0.5304424648017071	-0.4352248052353713	0.06452890817729605	-0.20574921039710442	0.22153204370675642	0.9532003021569375
0.1349931953669735	-0.7631948580529152	0.14971235952280848	-0.010412272979761827	-0.47664090870011244	0.8790364205907092
0.713788152606181	-0.1150609002985045	0.2629737202986839	0.20759528171824912	0.016427754002820524	0.9780768517385251
0.8260678351700957	0.3846766155819246	-0.04877143054504301	0.8430064961726139	0.4541610862826275	-0.2882321202041102
-0.019490677342588046	-0.677507397505095	-0.15475911092910788	-0.11373714836232537	0.1545860749416813	-0.9814107226419175
0.6330192575070834	0.17011676613445745	0.24198804280091393	-0.13635087067434942	-0.009115329181367891	0.9906186707508906
0.6026937638013273	0.1690706635946972	0.245119633879361	-0.2564617200069935	-0.012030050002838043	0.9664795207700906
0.45355994401874067	-0.29111712424240177	0.16499173671509113	-0.633860865047154	0.25943312850593786	0.7286390434195082
0.316071376890584	-0.7193173266196659	0.16943977971465218	0.06123192890252127	-0.4409452825852636	0.8954428561603914
0.2109620503810542	0.46296821430494767	-0.09792353739302147	-0.5758224763073484	-0.6654526747114256	-0.4749749609176066
-0.7134042986411816	0.0029108700511149416	-0.041223471053241395	-0.4803120087091817	-0.03468826495692112	-0.8764114892925753
0.4169938952761069	0.15634232310892823	0.06439178978033072	-0.8863843974914034	-0.23913355495784688	0.3964061588535484
-0.5706935691314545	-0.40616413147715097	0.06336767223941317	0.19383115556934144	0.053363253022552126	0.9795824857343582
0.8064818041000016	-0.0028216856063276127	-0.22950077021329784	0.45563825477095166	-0.01691225135619093	-0.8900043575979534
-0.4124561048092928	0.6815063919541224	0.019781476230713673	-0.6042009924889105	0.7787512548570097	0.16878283009254239
0.8231917326647344	-0.1561535299911519	-0.2009791332310693	0.5760985517076975	-0.14130469009185284	-0.8050735638923556
0.3608138331282275	-0.7893520236358782	-0.04777537035232656	0.2298028232386966	-0.9262422084993222	-0.298774218475794
0.46419211714575653	0.5662127255253921	0.1942683981458847	0.039105348015439974	0.12408630532488862	0.9915005600540071
0.42933640514239985	0.47841069885683785	-0.20121581647727596	-0.22420221927182057	-0.15838278693301583	-0.9615863235700276
0.23323312017427816	-0.5261645038969469	-0.15803010084472058	-0.30777586732288054	0.5571732097118234	-0.7712535444800712
0.14838556129548133	0.4724566008677653	0.01617344777303208	-0.39843081061698504	-0.9079054949027479	-0.13023249009555574
0.5372294519365636	0.08015114055895046	-0.1845926655759691	-0.5763945753611041	-0.20047601076320612	-0.7921986257263798
-0.2940736181354071	0.7272256621670955	-0.08563044885952473	-0.28366681859534304	0.6732785734618454	-0.6828097088832131
-0.628660965075845	0.08241486580824234	0.024060949988700932	0.8825537266967094	-0.2010779361260599	0.42504891847531523
0.6621759044512412	0.6168748876699489	-0.060228349610351416	0.7225967140001013	0.5780466181029601	-0.3790990585796623
-0.5001710147803486	-0.5673666854173781	-0.06680637191168537	-0.18592027716733464	-0.1895192379502169	-0.9641141576518775
-0.7101589370334667	0.24657778931286714	0.01812773441586821	-0.8355190875497324	0.28837406090373685	0.4677053082208394
0.5139057367375499	0.008272835763354431	-0.14093129289964115	-0.7058965814682545	-0.17208127032775516	-0.6870939183792986
-0.6667389325277253	-0.32650968054751606	0.004370187299688504	-0.8928705355259083	-0.4401670112940583	0.09505371617214156
-0.4244015926471975	0.4614291554628221	0.03574645555588759	0.5135044454629768	-0.7553063047764399	0.40721685924666856
0.8744195677945764	-0.32314692281054114	-0.036717031804813005	0.8955601916674968	-0.4156913027842345	-0.15865901767634288
-0.626434521174866	-0.439831102820169	0.036394663939573885	-0.8209288092797928	-0.47963183590451214	0.30988577263457584
0.046130985493560234	-0.5483629021637435	-0.0575038864764889	-0.23453947378710657	0.8768838184344563	-0.41960219756749945
-0.5940255230641548	0.35388822289445887	-0.05765128188024803	-0.2845596407243627	-0.28232162454113874	-0.9161442633053339
-0.710016537041813	0.2696933922222509	-0.024060710463642714	-0.9269001707879673	0.2637728493903244	-0.26698306560106816
-0.6897586187613688	0.059523022914222255	-0.053702489839449086	0.2832128211062559	-0.15139917586635612	-0.9470315662680018
0.13912391665804688	0.857831439529358	0.07123864933282012	0.012980994292929426	0.952160982659657	0.30532107180436185
-0.3484028091106737	-0.6918508821894784	-0.09713840519233742	-0.42627394123844686	-0.4021669275671826	-0.8102791428836201
-0.5549573816791645	0.48544115579479796	0.05619895861479478	-0.4600009070773033	0.19512138205860524	0.8662140680868664
0.8745746217009043	-0.3512264674801106	0.035616903063049356	0.9089097765134097	-0.39034756793540304	0.146668995923676
0.4710107577523756	-0.11299311931650113	0.12090992039540255	-0.8170197060622102	0.14772737527722876	0.5573647122842645
0.6522052425592862	0.6611552762280973	-0.001971481717140366	0.6645713402039066	0.7456384936488878	-0.04866385279240308
-0.3925497006179961	0.6965178929681115	0.04598564915692095	-0.5640079059739299	0.7383782552139302	0.3697196697852784
-0.4259403564355174	0.4786631345838095	-0.07460213113149171	0.3264488950173076	-0.5401496529037803	-0.7756735598239145
-0.543691660329599	-0.5074505431633038	-0.031273438040716146	-0.5244144482584834	-0.7784243653119286	-0.34502897551723316
0.27733903469128374	-0.5475995260420149	-0.1710281622496936	-0.32171673947690393	0.4032560582452248	-0.8566696510492677
0.23736185088508002	-0.44428355108906414	-0.01930284813512337	-0.5905293406681805	0.7974863508122148	-0.12365523878195044
0.560758095339222	0.6048079357441086	0.1877378129539969	0.44507901715267373	0.43586774507631837	0.7822556981527812
0.8002023045123152	-0.4087307219127965	-0.1364747210852943	0.7034002921879289	-0.44437085682854155	-0.5547635266952973
-0.3343653468771911	0.5125600416211945	0.0348386653780758	0.44770951089210487	-0.8360799603689343	0.3170591328541629
0.34587722042211466	-0.36137888385600014	0.09006455593835559	-0.7272811594712563	0.543863786230287	0.41865773264732764
0.047438736907894304	-0.7122547817443066	0.16863832330988945	-0.11789737113153631	-0.04427763642966739	0.9920381549076002
-0.266572765967807	0.5537188987172764	-0.07010577512113063	0.36779214546837724	-0.7417652850807236	-0.5608147640539436
-0.05055772838735477	-0.8052776643356582	0.09720988052885643	-0.16008934070602024	-0.6722820783068945	0.722778119604954
-0.5963085584701684	0.47368373964352506	-0.050802118951317796	-0.6920813534077846	0.4667806147284575	-0.5505808369158639
-0.6238932313783969	-0.04679180527202059	0.030658630645100757	0.8506517568792176	-0.23685568329369838	0.4693516526121711
0.4393309456078763	-0.748720374814554	0.11030640972418139	0.3268483878271855	-0.7719988801686002	0.5451493927293667
-0.06679601439959595	0.6124057278272704	0.1103760976210781	-0.1040873570503838	-0.5760082318485736	0.8107899474863668
0.1573124195612701	0.8259995856145074	0.09569522996492522	0.017397260958295302	0.8418107645186902	0.5394923280748366
0.6064621969492044	-0.30494807109397337	-0.27312055255532286	-0.18175605460504343	-0.0703820543285918	-0.9808216469077827
0.8851720077032483	-0.3107745682610807	-0.04505511893722392	0.9012495535680183	-0.3694967301869858	-0.22632147174886547
0.6951587501484024	-0.47776862735223685	-0.19343307896026354	0.4946778769633532	-0.3578424995606869	-0.7919864541462756
-0.3412412015302493	0.706113101083563	0.05199986536848182	-0.6531020627568358	0.5487803943084716	0.5218215925442375
0.6323074691688643	-0.66269741352575	0.03669691924877709	0.6122289384381528	-0.7663806128449575	0.19451602297569254
0.43118318734033706	0.7569955923787628	-0.06707819974368086	0.39414406167426086	0.8650943968012516	-0.31026141118417444
0.14180459552096894	-0.5490540017171361	-0.11139036908926407	-0.3466304521154803	0.7126201608131687	-0.6099342883203334
0.8431664099202476	-0.4213268724343726	0.009924283434115102	0.8795505625548089	-0.4755730457241334	0.01486896399182186
0.23076182707292092	-0.5589462567559352	-0.15492544158084978	-0.25678262376539496	0.4885787364290327	-0.8338785897488733
0.25141391646547484	0.5119611926310238	0.14324670836445322	-0.3975684864707317	-0.5210399995644405	0.7552857852622799
-0.6449913619479911	-0.3839179291577705	-0.06276639379417079	-0.527218850917597	-0.15432947356646168	-0.8355972096804938
0.6476953793806066	0.627784597403036	-0.10994698375088145	0.6821625003870582	0.6362884917254527	-0.3602655664415155
0.28835345702805026	-0.4779922411822908	0.13617308475038356	-0.49383382864614594	0.5250985400713074	0.6931087020804667
-0.49216774871039104	-0.4679557304667795	0.058335532410829026	0.16896919611917358	0.1772950095944293	0.9695441662635862
-0.5579772854965684	-0.2809678512119823	0.006258407883097384	0.7197139963553624	0.6883499817565644	-0.09047688138928653
-0.21832361599193742	0.5651890591931894	-0.059168115612092724	0.07126926137182502	-0.9118354430747853	-0.40432266463324124
-0.6088735803496848	-0.22892023878685241	0.06906544879743592	0.6189367277840521	0.38107581854331696	0.6868031359287105
-0.12911975510114482	0.5558878605548444	0.04659724818656574	0.055780165207900786	-0.9305738224593805	0.36182997957979773
0.7454093586812617	-0.47888971741452185	0.1432375593992429	0.6400913471614029	-0.4687330211242892	0.6087465993307862
-0.6487353819019995	-0.08972316256615305	0.04316271616175226	0.6029424962703566	0.14467199642332879	0.784557429154908
-0.7464644948417549	-0.16499769474026194	-0.003945613913573222	-0.9654320745825087	-0.029184980135555483	0.25901572597392875
0.07570906369331692	-0.6283239517697092	-0.13993478175305546	-0.2287173502321308	0.47936262540451435	-0.8472897066931029
0.2270213256655987	0.7274012739002116	0.17180747130919127	0.07012047101321803	0.24585609029473218	0.9667667259529947
0.7136061158378447	0.21986498826626588	0.24353847780075238	0.024609452393253416	0.02520498313382337	0.9993793492353776
0.2800742267156503	-0.4570993282551847	-0.11254012635883306	-0.5507933822243489	0.6260451244767795	-0.5519910798343717
-0.6761165266125078	-0.37441173109395154	-0.031198000680473414	-0.8143450759254249	-0.4914559976631625	-0.30872819708753485
0.6959148627088	0.027664708897605028	-0.25535366116593644	-0.07780923910062235	0.0011945910801565414	-0.9969675497541198
0.16206579790029796	0.76159666693924	0.17856338004190536	-0.24629718794325717	0.276932355977012	0.9287874705357869
-0.4100989856515627	-0.6417395110664424	-0.024710171604178748	-0.6666033688307116	-0.6860944741184227	-0.2914006198478518
-0.7316808159526664	-0.17432283501301746	0.01450201121478365	-0.8974246400060476	-0.08590133419122238	0.43272390307698894
-0.4232864340986147	0.46792240119401174	-0.037093940447128555	0.40142417780088624	-0.8009018799504111	-0.44431386222891955
-0.6010579036146717	0.459881830507821	0.04177993794194997	-0.6875646208945221	0.4355737008397177	0.5809737027017353
-0.2519165350351602	-0.7599840846858131	0.0731196339564443	-0.33036595032816823	-0.7010710922730959	0.6319475155760759
0.17973314857107206	0.7369125092060879	-0.16995573169778055	-0.06969118970705715	0.2962999897146955	-0.9525489248181879
-0.48710235843039457	0.5988465059548613	-0.05816219195199472	-0.5656404646822741	0.5807508186613751	-0.5854736128453294
0.5986522452539315	-0.5441746250961567	0.20552275390243693	0.34479726969305924	-0.37011212934490695	0.86263077531699
-0.4491838405251733	0.45739777821155175	-0.04368572386001619	0.40209169510322124	-0.7766489085022015	-0.48491106571345227
0.3892972573185451	0.24415771649904078	-0.05359654349408368	-0.9119807064040406	-0.4096196146580475	-0.022426823987805072
0.5900810583021793	0.4552523252100172	-0.23051591854760778	0.10573761751354259	0.13878996628582957	-0.9846608053035004
-0.7183415590851331	0.030597378670892895	0.050080809394650684	-0.5505780942970666	-0.02259541987182509	0.8344778062243631
-0.6169227331386032	-0.2093643555173833	0.0372694197183106	0.735024396315771	0.02242159604085689	0.6776698376433901
-0.6292716779283766	0.4075899493452846	0.0421633276007315	-0.5109065538862506	0.33019748133779825	0.7936901892516053
0.4549403402477845	-0.29824771752514184	0.1701979858556305	-0.6153177001860162	0.27959813625817026	0.7370271433527733
0.03187902854516423	0.7987855847720217	0.13387528459454492	-0.06060848741634167	0.5163279532237022	0.8542435577591005
-0.5736928222852451	-0.45012782237243243	0.06688816411704351	-0.25938814798031473	-0.20709765868995547	0.9433071336804792
-0.5469801411975563	-0.5403831004197222	0.03480396649651893	-0.6587617238748182	-0.5674234417585373	0.4940279636825971
-0.44135739407013014	0.5664079971978419	-0.0851093024123661	-0.1983580900410148	0.13539021927724199	-0.9707335147399311
-0.35847193722749876	0.6314464821816199	-0.09812782452675226	-0.21498608851027828	0.20362821432968478	-0.9551526223991406
-0.539603458068409	-0.4135305001984533	0.052741730478019166	0.5247187249403726	0.32251912932729593	0.7878144901656181
-0.6441953761871044	-0.06528682474572614	-0.007105651169982521	0.9619742511391809	0.013087305271438712	-0.2728264330777798
-0.4689222936155827	0.45458319363451316	-0.05479843985624196	0.7530627321498938	-0.5117061330657522	-0.4135859703010156
-0.5963886433071525	-0.4917043255184195	0.034940757749931536	-0.6697393831312654	-0.46333333897937523	0.5803200631316964
-0.7127370291868974	-0.1350589176482871	0.04525221377853812	-0.5876368016823827	-0.07906033626709087	0.8052530363418902
0.8112645450183726	-0.4000990897911155	-0.12544681379055642	0.7280325234350806	-0.4504506068309187	-0.516781284129376
-0.7454762204698303	0.05185031313713594	-0.0028917687729031827	-0.9310368130120724	0.00301946153561429	0.3649127781653541
-0.01953282148475078	-0.6654214059184598	0.1222422943791099	-0.16330641356963516	0.42653024229652753	0.8896083226305207
-0.41493681447882114	-0.4497975615034978	-0.012445411284189689	0.5054146140048991	0.5645088786836974	-0.6525992597586613
0.8251930084286819	-0.24456150847046437	-0.17885804950357292	0.5960486154628649	-0.22240620966626512	-0.7715319344697843
0.6567492591574309	-0.2748176624589969	0.2435433721626823	-0.05004110549354551	0.05348446679288961	0.9973140426028622
0.22997778067926103	0.48979911820717187	-0.0747981454439237	-0.25226089720009626	-0.8673628406142833	-0.4290059935074615
0.8164462512412438	-0.3694593555281127	0.12032486558067013	0.826940340112566	-0.35614479274302574	0.43512131698704537
0.6627279847348411	-0.33232034785345893	-0.2479190167665959	0.13786155100887865	-0.22527298971372828	-0.9644927541764455
-0.6458529410697188	-0.37376305725353315	-0.05225483565590562	-0.44785126738100844	-0.3857463029412608	-0.8066157896250072
-0.5910667148551851	-0.3817823652463823	-0.07217114954843189	0.14985379468176258	-0.06733243140196205	-0.9864127857550189
-0.7085373672268318	-0.20692802246915573	-0.043810324341497175	-0.5044726226038942	-0.43209379109364865	-0.7475308212652279
0.7517952989358511	0.30782341748893005	0.19840823145804493	0.37470235533361834	0.270072079252364	0.8869381133516269
0.6937612899806276	-0.328881243529849	-0.22765203253423402	0.23547907451368036	-0.12366265086584531	-0.9639798515773097
-0.3721674525460115	0.49286209776888606	-0.027386286027185253	0.6041411793265395	-0.7827698061790138	-0.14928116417152953
-0.32518739841397487	-0.6202747595553975	0.11750913115683857	-0.14640566147230388	0.009238651580547652	0.9891814947752666
-0.44707882240575686	-0.4945937624540665	0.10426002259640706	0.10589422522880813	0.27437881696757177	0.9557733402133923
-0.6441630700900367	-0.346833460710142	0.05362584271886006	-0.5283066700818709	-0.13060566070965238	0.8389482843045818
0.49844438195346513	0.39131947028062464	-0.22541901254478697	-0.2954312447445696	-0.06934356649236137	-0.9528440845252667
0.09579086750705924	0.7398045669868072	-0.14646821909974383	-0.038500334645567874	0.321941742625287	-0.9459763414523502
-0.2616155957672589	-0.570604138129381	0.05369908957811351	-0.0261084786262277	0.6631957979328141	0.7479904283799903
0.9286284221001995	0.18536336261171069	-0.0534207638627443	0.9531967888803481	0.13989841862513963	-0.2680378968250178
-0.5919755251919495	0.4450754726977424	-0.05726702131783823	-0.6565701677242332	0.32664860813009455	-0.6798649142743314
-0.5771954272824046	-0.362395728615069	-0.051029243152525765	0.21654254556927105	0.27837736877461106	-0.9357432161188799
0.7037153291213719	0.19136755013861526	0.2534124812608778	-0.016264794147645752	-0.046646147365421074	0.9987790513458412
-0.012897958161862332	0.8000879606708493	0.11627184299993912	-0.28678539909564427	0.6912917001177558	0.6632268994950791
-0.5197275618514653	-0.416633610305105	0.07405757199023615	-0.4949159918646787	0.07702781434911588	0.8655200037048247
0.2831133846734394	-0.4026812736724134	-0.03293149522399163	-0.7133169070050761	0.6765305254024522	-0.18299026853741088
0.11303046877824559	0.544626794964864	0.06651154804668277	-0.46364464349394696	-0.7979990346826269	0.38500803264992556
-0.5531633079848921	-0.4010346539271818	-0.05576202145656637	0.24352322219330635	0.06960126522786206	-0.9673944925061698
-0.5256918091089955	0.3741319158307504	0.03460970350319466	0.6280668635079852	-0.5763244596571906	0.5228595721262929
0.5007176825691714	0.21757468005203823	-0.16599771384486234	-0.7417005146916669	-0.1665082536969802	-0.6497348289547806
0.42396341910332	-0.4029738223295975	-0.21169404305381248	-0.42396742802483783	0.24662795135242802	-0.8714506719176418
-0.44020230176941433	0.47845173441922767	0.05827380958959648	0.43628174234673284	-0.44609893884830154	0.7814435219856378
0.5530607345709186	0.38471481200472163	-0.2343189641943762	-0.16439461251267834	0.025456211599914035	-0.9860661198255346
0.7432936606839619	-0.4739620781218305	0.15797004185468702	0.5877573138967251	-0.4835107486151037	0.6486591523555102
-0.6966058041865507	-0.13932477897057383	0.05975374474752874	-0.38782525177339544	-0.07640142706322588	0.9185610464360026
-0.6961425599024249	0.020195639230701147	-0.059958350365650476	0.5603276627647603	0.1722211785196613	-0.8101683627554701
-0.444188332110849	0.49465392217259363	0.06968557340663036	0.22431512324501157	-0.410398918282186	0.8838865613620259
-0.050951246713211995	-0.7467250216217849	-0.15095127892618487	-0.0998963994573293	-0.14332153574482154	-0.9846215754122027
0.5577687274839727	-0.16864044376154133	0.22036470222043752	-0.526333815367008	0.0878583097374668	0.8457266888370529
0.44035846885600644	0.564862337602098	0.23263497633006588	0.006154659946138938	0.09767012747025122	0.9951998122793695
-0.37446422355680187	0.6454086370685933	0.09799101110373523	-0.39503157646065473	0.3436448083401341	0.8519731799181722
0.8066343540054001	0.3989555532146652	-0.12984131604412694	0.7482915074116656	0.4287599752628842	-0.506186431612057
-0.6423680755502041	-0.10034730952571703	0.01472960917167173	0.9132107458559062	0.3501934069116682	0.208352373177984
-0.6240377355465816	0.2046064806703785	0.036197026632924005	0.7997879208711124	-0.20810429204989017	0.5630558455953338
0.02399005959961116	-0.5822485710663355	0.07904601671304878	-0.324416356927151	0.7918613828919873	0.5174065883253768
-0.5825532205400626	0.49859590418209726	-0.025674615358954968	-0.7903314034799866	0.5268674224852785	-0.3127091169075068
0.3919157962756993	-0.3002707249467005	-0.10912447673579977	-0.7813200570468946	0.4649445866984683	-0.4163718287252739
0.021349660844358742	-0.7544022751757645	0.13624156644915073	-0.13324920770773996	-0.47208906675867024	0.8714221489566277
-0.2882141424085943	0.7590145015273403	-0.026963958699842454	-0.4070429266543657	0.8546496732511932	-0.32231970444308466
-0.261147024919914	-0.6800845664279608	-0.08872273609079398	-0.359283493615018	-0.16122891811885987	-0.9191956305259559
0.3912230338630917	0.5390765970614352	0.2101756738112822	-0.3036965540116145	-0.09869075118832643	0.9476436770808712
-0.5743845327718323	0.30494041193782623	0.021512163731558755	0.7738511990357104	-0.5534649120925572	0.3079462823827745
0.3456177461932611	-0.7101677026865608	-0.15838993696213127	0.006235923070986929	-0.4876548990286602	-0.8730142110623391
0.23373125606062226	-0.7915064173059801	-0.10132312088078538	0.018617543988550516	-0.7263303003444407	-0.687093648535183
-0.5794547835385152	0.31531081015642737	-0.04455966587601567	0.570856419331713	-0.26281318656767316	-0.777850999532636
-0.5910039738999161	-0.2871899904830777	0.04810408649744542	0.5019511618276888	0.7789039115086974	0.3759703815146682
0.4836759436672881	-0.7687802368597726	-0.012400862098219717	0.4640159008950188	-0.8851851986595649	-0.03371064803013313
-0.6667499620539276	-0.011777884039729928	-0.037100230282766045	0.645261414718251	0.19748056471043968	-0.737996702728031
0.1661757276352238	-0.6328296517770216	-0.1630624510704074	-0.3018699684716122	0.17544920034245154	-0.9370656861896826
-0.10516306618097021	-0.5720205780628618	0.07520151542108862	0.31033255699449735	0.6021579014289266	0.7355947021396823
0.08062777790631509	0.6158951082777709	-0.12394989095285205	-0.2746535012189427	-0.6252193235820954	-0.7305246413966628
0.28716442435787504	0.5030084442599733	0.15915295220193995	-0.44297566594554927	-0.44136909871841257	0.7803626580485464
-0.574716090925922	-0.32441822790738406	0.030215970418604098	0.7332530202356122	-0.5479048988658527	0.40266640052797187
0.1698255397322145	0.7813870696794241	-0.13769315734464957	0.030442805948137724	0.5908445785444525	-0.806210840643211
0.40769507444421066	0.5291172814444818	-0.20894500148097975	-0.12168253258361911	-0.10286380210584017	-0.9872245942440687
0.14297407504026932	0.7043970899845827	0.14836871668511054	-0.2384291952901281	0.15551285317039873	0.9586278064671939
0.820439128597506	0.01487227950290042	-0.21846384579962339	0.4965044698109837	-0.010366852627516174	-0.8679722575199704
-0.5250744487894885	0.5797510880387104	0.008646361936917023	-0.7204440615250295	0.6771476192302819	0.14977134567093264
-0.09123543789743058	-0.8323248804182474	0.046071306516234437	-0.13076933304949173	-0.947243994382235	0.292622959865728
0.78631376246891	-0.4139632042638798	-0.1283573498365956	0.702278981238535	-0.4484553269717138	-0.5528942504867077
0.17698261531006448	0.5478651257087912	0.1312234427580929	-0.3776088833078115	-0.5984530983021217	0.7065871640354202
0.4218314621234028	0.35045846476938747	0.16923895244637077	-0.5754055590749562	-0.30035973490529105	0.7607183922012538
-0.6318271258454767	-0.29436868847347414	-0.07117162529482644	0.0051265329867594125	0.08863369640551853	-0.9960510963404593
-0.5726777493416639	-0.3641641107450283	-0.065189797314665	0.3041365922865602	0.36131225322663435	-0.8814501624599149
-0.46037568282042735	0.6298089160276579	-0.04479418359560953	-0.5558211298496712	0.6882175457857302	-0.46628261954023253
-0.04569913865041219	0.6388837285441351	0.13017028495999433	-0.1377125913181953	-0.4496772729064064	0.8825109588123458
-0.5879601942627122	0.47636235762355617	0.043063502720088506	-0.6900021460445684	0.493879594687046	0.5291313489159855
0.5291452592664716	0.5966097843588678	0.2248274089759241	0.11880248910442237	0.2497157958357322	0.9610036367739302
-0.026129947789619863	0.587621960918685	-0.0654210095300686	0.0025911252334768486	-0.9179013919507483	-0.39680010171987484
-0.6519551149489848	-0.12328099604544206	0.0513749578198862	0.3753805589150841	0.1104254135401848	0.9202693431996292
0.38480033265899316	0.2986223580968899	0.08400945630796872	-0.7466776914730151	-0.4380786684532372	0.5005591926063965
-0.7104174034911349	0.08827833366195166	-0.03714456682165377	-0.44437417972654764	0.2661292737453367	-0.8553986193863878
0.5913992253929111	0.3014237253840954	-0.23200325073604383	-0.1337851832378094	-0.0829630721582731	-0.9875315961548199
0.3065562821500953	-0.511066302129275	-0.1868694803726019	-0.3759809175741473	0.29329357305624976	-0.8789864786354802
-0.29065456331491113	0.5281464931328405	0.002994064557215087	0.3038949888435007	-0.9438528484170002	0.1295748289249283
0.13291528432137353	-0.8428361203928338	0.03678406238370305	0.07895973980124632	-0.9806715921403133	0.1790211938835807
-0.2690411528703427	-0.7645952540331941	0.03648643553842608	-0.5363947546363295	-0.8212517636515733	0.19448960871422555
-0.28765288769074243	-0.7417897735788446	-0.04015227607615077	-0.36917091996037166	-0.8731536127045524	-0.31830111604674083
0.042884953780663204	0.6183266881028695	0.13614542252371184	-0.16008731490723294	-0.4178055222875407	0.8943213053214304
0.2884035177988494	0.7416678137263313	0.16074062401872366	0.01187499444549589	0.5435539074016562	0.8392902562613904
0.9536526111391076	0.04269139890043367	0.029379169763546407	0.9986197041542848	0.032253124046315966	0.04145385945919055
-0.23061712558161804	-0.6248065461631034	-0.11942367010780343	0.06264417592760031	0.37299014416869025	-0.9257181318173316
-0.6494173253125366	-0.3268277961979372	-0.06106994900358103	-0.3697023913410694	-0.08494356830377597	-0.9252592782785354
-0.6307607662104029	-0.2224137505751312	-0.03957714852677907	0.613303682187765	0.26516412103581466	-0.744007111747081
-0.3551632279654499	0.4993834275223117	0.02701833348333131	0.44135957274400994	-0.8277732172121822	0.34640038743254664
0.46868672438150644	0.6687772655453995	0.16798110579920067	0.26465394323139113	0.5279883726622165	0.8069613179487479
0.44250956041819	0.7215940674036032	0.169646799486005	0.34728772099122496	0.4307056796938606	0.8329969125562056
0.13951260834099607	0.48679575387485596	0.012415431102043746	-0.21632196844726453	-0.9742362910347412	-0.06378444322852514
-0.2772666683658327	-0.6437560381254067	0.12103884441365112	-0.041945899602880386	0.0009511000203851142	0.9991194307565324
-0.01635293983538185	-0.7375591146455208	0.1360548280564488	-0.1821109019461924	-0.28856962160808064	0.9399804215393599
0.43892869385434286	-0.10554674632257541	-0.05297708440923145	-0.9756009754073085	0.11217450826860631	-0.1887315990474437
-0.36160843796589726	-0.6652923422737583	-0.06084997772859402	-0.6024027466907138	-0.34516839426425105	-0.7197011257324266
0.7256380343764353	0.38876245676484394	-0.2036516122432646	0.4020126277092692	0.31572211836857916	-0.8594797211890137
-0.2249896502186607	0.5762687011158488	-0.0829250374951002	-0.1644991975236706	-0.6624253885180855	-0.7308437717191901
-0.6371922051215947	-0.2273481717975943	0.052341482675219084	0.4799055166710343	0.2316122186637508	0.8461952937911932
0.18850851432147367	-0.6350240487631412	0.16991956007060535	-0.10960914091065396	0.04150069091134739	0.9931080147107404
-0.025800024903011986	0.5531153841407588	0.03462725820532467	-0.2821575295621154	-0.9416811932547969	0.18336755105968258
-0.4048793911050059	-0.674879661571119	-0.10727603228949914	-0.4328618376998727	-0.41858210317546946	-0.7983856539068629
0.02018434014400436	-0.8395483662833015	-0.032098405455502854	-0.20508331035031982	-0.9622367952190446	-0.1790005188325926
0.04487159630897446	-0.6954582801788537	-0.12838115752900114	-0.18240343343790677	0.0202750768980298	-0.9830147042271765
0.2117681592702949	0.6107448625947088	-0.1549159533885493	-0.2751404203831862	-0.3151687854599986	-0.9082766020013028
0.6986613316952087	-0.15443318410871698	0.23657449828847577	0.20817401071788216	-0.04886518486309655	0.9768703982463212
0.6568203839076608	0.44860948030375647	-0.2130717963770194	0.32104300252834683	0.2728686813637623	-0.9069035633728567
-0.37474605057366134	0.5228805642758605	-0.0617092826296443	0.44953884593028465	-0.4887416174733702	-0.7476940934293795
-0.07088179241200425	0.5491180007131349	-0.0172148607225737	0.13519643391093233	-0.9690774837328655	-0.20642372630040445
-0.7108630217196138	-0.08780773430682051	0.05278381884959524	-0.3953633117398359	-0.14966272685286808	0.9062499213357611
-0.1902396534852385	0.5695444103943136	0.06585023463468023	0.11011696749021363	-0.7876348891871382	0.606222347662905
-0.07867295608397863	0.6858514855353242	0.13033428189748714	-0.19865070371457078	-0.20100528272346957	0.9592365580142175
0.8776863332439252	-0.13930545144185918	-0.16204928512254685	0.7412762792487355	-0.13841618672916295	-0.6567727438578029
-0.5628152563637244	0.34887405191681053	-0.054525598563442794	0.4744480917508862	-0.3849266606925017	-0.791663106455051
0.04041654702607135	0.807753548643545	0.0898341421529028	-0.07852102247789966	0.7682856427781366	0.6352728706075927
0.5482603185239828	0.714285121562691	0.016575451874515226	0.40640416264645146	0.9131253352960725	-0.032214571610881385
0.6944795497069645	0.5931461645042255	-0.023811586290297494	0.6146680221889854	0.7882108296183732	-0.030114955928831608
0.5586585887053163	0.6780525738380536	0.10702354212011918	0.45183906487756054	0.7291731094497006	0.5139533402032013
0.46426735288308063	0.557591072791845	0.2043879536164402	0.04270153281982624	0.12570728974715484	0.9911479487943581
0.1201167269882898	0.5237992209251356	0.05850825274616165	-0.42130566973030087	-0.8014129568741966	0.42454541006500146
-0.043765264482883516	-0.8044538927707882	0.09834614551269667	-0.18102520333631134	-0.6698580793224936	0.7200833488724946
-0.2484463830797888	0.7486664984081701	-0.081350284374995	-0.35859018512572516	0.7058637602754838	-0.6108759539065624
-0.4924067953327606	-0.41208506526643224	-0.020085778823978835	0.767280364030223	0.5834850023963138	-0.2661317248135254
0.500954371308262	-0.2001740311760537	-0.21378712672866695	-0.6643538185901775	0.19870514580301438	-0.72052083159063
-0.4195522959433089	-0.48552382448013065	-0.04994017142070905	0.4964889723868793	0.6057093818711504	-0.6217835998251239
-0.755183704160298	-0.1093455698145999	-0.0030555648126743638	-0.9767036977100243	0.0026818571493276017	0.21457561492815647
0.2750740069838982	-0.6250679865349917	0.1807240416837618	-0.22771301059426105	0.0919504856160609	0.969377064408411
-0.5704647489484934	0.482530914136334	-0.05181046483357287	-0.5242864001961943	0.4473770116514808	-0.7245533658848786
-0.16393922003169015	0.5611139026875197	0.010433044975161187	0.08680383623394225	-0.9892536959473123	0.11765296030977415
0.44775318466411057	-0.2553580830533182	-0.15781605774384358	-0.6623105588516554	0.32063619407651434	-0.6771537156966178
-0.27603080617395004	-0.528417800493782	0.027597322730670507	0.16477073971296713	0.9831674183942415	0.07894574556265758
-0.6570186126992499	-0.4024181712038293	0.01075027678730751	-0.8177722260557877	-0.554837520721257	0.15298337129129563
-0.3017884705189253	-0.5267226519315055	-0.019958279271545414	0.3339643556856288	0.9316078526325046	-0.14343855145997722
-0.15498998576657297	0.7203403914741306	0.13217144942385875	-0.17813038163553865	0.21198619587146095	0.9609013580479133
0.5147823689315437	-0.08568596673187268	0.17287320949421792	-0.703659719936944	0.1145721225994355	0.7012390656982262
0.9382076795095674	-0.061513384068437635	-0.09203152757481896	0.9109384146741362	-0.08461302451037211	-0.40377201581360084
-0.5961377482906152	-0.46311176140575355	-0.027312242854084602	-0.8123902259963276	-0.36121424628066384	-0.4577623717492817
0.8348590636828689	-0.1423498336110241	-0.20749850069813194	0.5868251690120663	-0.12840347963469578	-0.7994678026235087
-0.5375909455048241	0.46240389133463905	0.07206152793660117	-0.11711872215524312	0.06063032634200681	0.9912654379369763
0.5053533673710782	-0.7484214526490852	0.04491574624831945	0.46020734314809986	-0.8575848227648659	0.22968994988009522
-0.21785845335042278	0.6031939876582673	0.09919982631296656	0.014957906530002785	-0.46703136266391443	0.8841142275297504
-0.5009980348807508	0.44958903425086894	0.0701583541648858	0.11010382684463604	-0.41476426639895725	0.9032429078784403
0.46066480228808787	-0.4494806070055165	-0.22653108472254913	-0.26403951241833157	0.21269349744869742	-0.9407680968362659
0.5938558251817121	0.6945971267350539	-0.04567073348451187	0.5135562854778344	0.8338087006375365	-0.20254133500931013
-0.3756294057213364	0.570977553804948	-0.11234654434203248	0.01397399119976818	-0.1564094161503666	-0.9875934498109279
0.8144543555031476	-0.23913269286992703	-0.19670432036578517	0.5653469542618277	-0.1731793477975705	-0.8064686818490113
-0.6381576263628144	0.10655786135220474	-0.009234909840482093	0.9209551877951615	-0.25209313115491316	-0.2971373340690977
-0.6476274794896504	-0.0752024905091506	-0.002265863380730855	0.9950590934934533	0.027027182312001546	-0.0955349772191396
-0.6996442754905601	0.14250053535435553	0.0526127957525248	-0.4314212125177922	0.04873243503077372	0.9008334403016179
-0.6104816942712218	-0.19348775248332864	0.00819415777459156	0.9560873741746994	0.28186635225652473	-0.08030126032216596
-0.732474997260722	0.02537238658176072	-0.04058347468727348	-0.6717002721649745	-0.13305280051221546	-0.7287768496936191
-0.6284892851064215	0.22330778464846532	0.05365622094155884	0.5247763767615072	-0.0385049115894838	0.8503688177353108
-0.6702906156661401	-0.043463434710887136	0.002423624625929429	0.9895827280942753	-0.13108214519040012	-0.05952726660761996
-0.30637019153937023	-0.7282136201508355	-0.06371619679679101	-0.38049985644961937	-0.6352793681241266	-0.67204165323113
-0.07066663968500858	0.8079082407010049	0.09473469195156188	0.02209609639249397	0.8040635848942571	0.5941325727236388
0.3276568803781993	-0.4608969996460257	-0.16882570477501158	-0.45766509898234975	0.47970052662020474	-0.7486187694239139
-0.16561985426383616	-0.8180796415378724	-0.040302283946098055	-0.3614384183208422	-0.8853015235598275	-0.2925807275682659
-0.5811013960827923	-0.3171271607905934	0.07519007458107495	0.26670194111780765	0.16016427102739156	0.9503775464994202
0.44026090612396906	-0.2685251445868287	0.14267286502184903	-0.6836158107213499	0.3483167213706514	0.6413617426580653
0.017508186725506924	-0.5439241657706015	0.030274617654132786	-0.18407487279723414	0.9486941484945305	0.25709113912564185
-0.5423534015583231	0.4734337599650647	0.07496679521102306	-0.13843572933606182	0.10193763007926596	0.9851112974771006
0.26954215993888136	0.4439320003301851	-0.029380120188365996	-0.5582962555026629	-0.812432906989587	-0.16810134661017348
0.5888282834597649	0.3307609670321945	0.23229605319734387	-0.2412871314566824	0.0007311110460066494	0.9704534948517857
-0.5568638027159938	0.43680480303758523	0.07097255421058679	-0.14566813031225978	-0.04970832743718688	0.9880839427876191
-0.5996924088221638	0.3429319299873197	0.057560963829694466	0.20125295933499526	-0.09878724185814045	0.9745451899244939
-0.06350395648311738	0.6508276388533373	0.12647457893967762	-0.13542121913276314	-0.36484967213780634	0.921165462959577
0.09763238238774438	-0.8364122098135731	-0.049354703286811616	0.012539063389416405	-0.9304269230854547	-0.366262901052032
0.44530134537063404	0.009066170099972879	-0.06127540628952749	-0.9641938500376288	-0.009248145939996733	-0.2650371508794335
0.6536696618940386	-0.5867264037504836	0.11944624371241466	0.555598218363099	-0.6386560123385019	0.5323806135234763
0.7225632588907128	0.14011816405305577	0.2548399093199817	0.04729293567607438	0.03293034041014493	0.9983381045094947
0.37134279792272457	-0.7144673593577777	0.16065827771208796	0.16126428594631936	-0.5724148187520409	0.8039496908086301
0.8675603897366221	-0.09868990653254878	0.19518135872010917	0.6896640907650355	0.03892638753192451	0.7230824145717765
-0.6195497587940342	0.20345246118858604	-0.00753529002385955	0.8919910320997626	-0.41081791455771355	-0.1886283110565624
0.37297493521388814	0.25196945171128354	0.0011389623789509196	-0.8380530964273414	-0.5414513899824563	-0.0670626561851826
0.45702580633643086	-0.7308799549768406	0.1278443988430003	0.3448852634081038	-0.7361080820464727	0.5824079726701772
0.9296397410552097	0.1854420803316449	0.04717112025906676	0.9758059034314093	0.12094438475397351	0.18214086478572764
0.4225533527818363	0.15939605493902795	0.009736681393322993	-0.9963457473601777	0.06504130322206234	0.05536046055141641
-0.6376698594693263	0.10982100969885693	0.013800556591819517	0.8988950953352793	-0.2337298830887662	0.37061833377949754
0.42613534293420274	-0.26766254038220977	0.1297711285954035	-0.7314856068085085	0.33706262203607407	0.592720503996745
0.5740478616723165	0.380180765902939	-0.22706657184794746	-0.07594090632806064	-0.03047181214966456	-0.9966466010629788
0.7361147075740994	0.5672349232241616	0.07764929879908729	0.6292720337732363	0.7186143493600619	0.29599007484155615
-0.564357078779432	-0.3554715172443799	-0.05593750675607341	0.30777592819969113	0.44418262433519684	-0.8414129629733055
0.05447788597436007	-0.876475228704803	-0.02115147325946321	-0.05576901784831153	-0.9974148418384826	-0.04531500776287241
0.5219914731805664	0.4619796144580629	-0.23195283196561012	-0.091923186354347	0.010187283613185983	-0.9957139885845976
-0.6215614839355054	-0.3354389224993698	0.07162114477720632	-0.2338557420456359	0.07239447031219334	0.9695723452019983
0.12035685774586927	0.798280505946418	0.1028996240586852	-0.14813499873901792	0.6462421578253512	0.7486167882153225
0.07495864274052655	0.7422004594082986	-0.1502243694277066	-0.11890690290853329	0.4072547775179823	-0.9055411059855198
0.7541430859986866	-0.25290982193083006	0.240867336244615	0.2887023231780183	-0.22319437726850577	0.9310398694724837
-0.46194410527819046	-0.4452485370280902	-0.034640804808745644	0.4425487851324184	0.7651478293324379	-0.4676530466549734
0.3223141018284804	-0.48833059537610973	-0.18170026172609863	-0.43539138025993357	0.3346118796521226	-0.8357447193916477
-0.6518235673277677	-0.016139940442833324	0.03818893843510454	0.7605974810873478	0.09527954925715842	0.6421941133776727
0.03148367819804579	-0.8679554393119407	-0.04372643694288301	-0.16448743044006892	-0.9563737550947838	-0.2414396939053823
0.3805131133007351	-0.3754329544520402	0.1455467512160231	-0.6275843279862442	0.39862160967739635	0.6687590923226814
-0.47173215345469327	0.42481367918263163	-0.035302619082828536	0.6722924303198345	-0.6040847011626423	-0.42790718848354437
-0.587958487991053	0.4557399870832261	-0.05516185483195582	-0.6533723444265416	0.39132196565874305	-0.6480522345702872
-0.6235002506684229	0.17567018696333556	-0.01143727470651277	0.941333478564639	-0.27268754105896376	-0.198828536897026
0.6036474468855001	0.2767795591854557	0.23772759481756597	-0.2552848553581418	-0.06957760250617866	0.9643591653809624
0.7531836190666239	-0.06896877164471048	-0.24905782397959533	0.25900466354380547	0.012226253120165669	-0.9657986865787307
0.9385446038095846	0.12793461845781912	-0.02090560865131428	0.9847897486041234	0.15234432674325565	-0.08354853172481679
-0.7332227358941079	0.1321227226490152	-0.035193763233269795	-0.8544723894711128	0.15818126683744008	-0.4948288819917757
-0.003535152537345024	0.7119871656603259	0.1547028323684647	0.09667042425289059	0.11388541448833837	0.9887795211479584
-0.6809595802947325	0.044696202452135646	0.04697265352785695	0.15190713600197614	-0.25388801998859156	0.9552303886172959
-0.2850642695748069	0.6844877230534566	0.10125801413251077	-0.3053026946640542	0.013564306912019305	0.9521587442274863
0.8638754831731309	-0.36486034881926444	-0.027636115846045087	0.9077369886850639	-0.39728774307853904	-0.13481842816370657
-0.6730679056516604	0.3285040004742715	0.035552248088061934	-0.7932875349459478	0.3173129684176108	0.5196223310957545
0.3763143992480051	0.6719902320573238	0.20833424698058167	0.11593428984266743	0.26081487919204577	0.9584022324842087
0.49159612009389864	-0.7431279651299175	0.07497114335523254	0.41197874226841213	-0.8417696280509637	0.3488515575569062
-0.1996025680886872	0.5432849908938215	0.032015015400024466	0.22446158193372445	-0.9434671335480076	0.24389909009776392
-0.7147195453103329	0.20454939389706295	-0.0006606417314492467	-0.9662400278772058	0.13755479376039847	-0.2178506076222652
0.3687244992286318	-0.365387865737635	0.13461829908152564	-0.6453191518358773	0.4259060302646581	0.6341665756392583
0.9362210036933185	0.024244175952756165	0.09408552437314846	0.9436573502239225	-0.03254200926239248	0.3293202438380185
-0.6483268639581827	-0.2634212668756791	0.04045464093659172	0.3091954365074733	-0.24124675162460235	0.9198903124142196
