-0.7009182724375462	-0.0883716022313591	-0.05037224827999931	-0.1714433541249648	-0.02058970652898251	-0.9849788019604444
0.3223818225391971	0.48246796820484306	-0.16514497170236997	-0.4760439894668319	-0.48171595001188783	-0.7357525831396361
0.3176451526140794	0.37906629464366054	0.06376903650942051	-0.7316537816842392	-0.6227469425295685	0.27725257314807095
-0.4099699961289675	0.5807499285948838	-0.09115738639847265	-0.1740062747014503	0.0024549008216462748	-0.9847414837542291
-0.47038025363922936	0.5956281699148633	-0.0685840855086618	-0.46482059429716704	0.43132297571196415	-0.7732414278478655
0.5091376571291933	0.28662207787196803	0.20532740011077458	-0.47972893845767745	-0.16207147667078037	0.8623183762717934
-0.2741533365295749	-0.6577515544075299	0.11403783856343637	-0.11104215204661796	-0.037520466293268884	0.9931071720000775
-0.04124347380926495	-0.6797263232504288	-0.14507548503789586	-0.15370192871130378	0.1708492977978787	-0.9732349328668781
0.931209282717189	-0.1452301818396964	-0.053761002861007344	0.9602988740853755	-0.18487023301143343	-0.20892359698381888
0.7080789720370119	0.12264305826189645	0.24853295574740378	0.06524982743115627	0.04031188015711655	0.9970543677946564
-0.6315207159924893	0.3325764490871298	-0.053759808248639636	-0.18946370231957976	0.020860023424606286	-0.9816661168269398
0.06292736710474717	0.7297800568553005	0.1552578735844848	-0.1070273437343755	0.31293899144663556	0.9437236541093621
0.4748507004375492	-0.043372221997916724	-0.10745706990520902	-0.9103489420476361	0.023062801508025726	-0.41319839169502115
0.41643988699733503	0.507680764287039	0.20754461848476202	-0.25523519107604337	-0.10374631576159879	0.961296884007365
0.5233632548272681	-0.33046161731661494	0.2220291507980125	-0.3567394662424572	0.08300019453235337	0.9305094953479193
0.7727500020709347	-0.4767249898875796	-0.11058112391069008	0.7245305995200217	-0.5090046244480462	-0.46472540564258036
0.3156109957406295	0.4853643677597997	0.16456639606366225	-0.4220752390474095	-0.4316000212194516	0.7972288970342465
0.3080058721185001	-0.3930320017796496	-0.06425192904771644	-0.7054091327294321	0.6443817942746517	-0.2952457597820692
0.4587794291555177	0.09983757136285461	0.09366970271329063	-0.9217457213530181	-0.1457225940539586	0.3593741097374566
0.04912517692846538	0.8410588362438459	0.05244673174355479	-0.07968877912944988	0.9313174993670726	0.35538347436750783
0.8008838497242244	-0.38139347486260866	-0.1528994298587996	0.6843951961061174	-0.37376607219389807	-0.6260208773065112
0.4500117457124167	-0.03290690673456792	-0.023905930674420425	-0.9921638647360211	0.10245828853700134	-0.07150639567304885
-0.022641109149338177	-0.6669734447732512	-0.1480876935863997	-0.16954108058237552	0.24312794598497786	-0.9550626282480563
-0.36233334023812147	-0.49317329931729376	-0.03170994899091334	0.5106599134486629	0.7991367582568099	-0.3171858988028962
-0.49491924349979977	0.41346939110122255	0.0502522618451877	0.4701331719816311	-0.5437459333093786	0.6952087173015046
-0.5594534977244291	-0.34781984906223673	0.05221948275219488	0.5224819032055519	0.26599826661231823	0.8100972676055304
-0.5998325556512679	0.2977468229318309	0.047379444880991765	0.45705434336461803	-0.2559312789616109	0.85182187554712
0.4409050029378036	-0.33951888231417415	0.17615779724891403	-0.5471094997198815	0.2935058816057066	0.7839167639355062
-0.6373100192923601	0.4247981773083833	0.009606511561126138	-0.8838001737335914	0.44507039425710015	0.14425531901563698
0.35904296258579843	0.6334176739367801	0.1961085081430304	-0.018058189539370266	0.18397829050624537	0.9827644124676873
0.4521349623809712	0.6140612815166878	-0.2009269973574717	0.058342590427283576	0.25965261385528005	-0.9639381008448393
0.019730660217278977	0.7089632766250378	-0.15153950903445662	-0.17844649020856934	0.07834655610917536	-0.9808255029708774
-0.6890404465366231	0.14418385892049054	-0.049066665472492735	-0.04529639145225327	0.13288290849600498	-0.9900961415696184
0.3612924517764898	0.3180146810207698	0.04857942200895359	-0.8347945810970082	-0.4997912484904732	0.23092577877622258
0.3202524390554838	-0.5054743436103285	-0.17590524442917677	-0.3581887206629958	0.3572724710827877	-0.8625875154418854
-0.49849368029748226	0.40734666305715483	0.04436187211902603	0.523454897137699	-0.5780651997101396	0.6259677272405006
-0.09873728508344018	-0.5632629713036448	0.04964167082428001	-0.04417444997301933	0.9484251460873833	0.31390820352247256
0.4378380370937966	0.14012818628521628	-0.05183988402291991	-0.9564502924896792	-0.17032960826862997	-0.23704569716293708
-0.45281416795732926	-0.5902861120140803	-0.07298980801137382	-0.2886689027712208	-0.25721675287062196	-0.9222308857415011
0.30288445286888893	0.7883425129531416	-0.11694629313704963	0.17368026224752964	0.7777632825391876	-0.6040856254203515
-0.07672071836378014	0.7734210827477219	-0.11682002926224806	-0.1642963424584491	0.575035212769855	-0.8014619241919752
0.9202629022262266	0.24385613105425397	0.002477789746017469	0.9529626423064332	0.29483263597510556	0.07025609676257807
-0.7344181977824952	0.14248522204765396	-0.027509749712085852	-0.8548568690037002	0.09137798668421457	-0.5107541454229517
0.7393476320435307	0.3996423175713996	0.20581722155499962	0.4915165080591492	0.40229802738909143	0.7723780288590465
-0.5183353081915201	0.40675181258610227	-0.059735744489080984	0.42714115007835685	-0.5320609828626586	-0.7310687713375265
0.4459844528140937	-0.32622510356790907	0.17582395278331842	-0.5590757169712268	0.30430584943629435	0.7712537148642873
-0.6027711649942701	-0.46106335428918177	-0.05453936251870515	-0.6328696746104594	-0.4194716938129138	-0.6507837375412633
-0.13123084306037283	0.5610345266830634	-0.0003677736874487677	0.0453754517142737	-0.9989680982574767	-0.0019511651818453941
0.6088119460613997	0.46957724069115436	0.2194071562940675	0.15334678936882043	0.25911029976475425	0.9535966729944554
0.23854399695491502	0.6546174655822732	0.18410189430318494	-0.15085647394957497	0.025952226164811402	0.988214959522771
-0.165587771981927	-0.8146601853678355	-0.014723046035969155	-0.20681902506508293	-0.9706707206606101	-0.12257341850229882
0.3184973374766617	-0.3987424644857688	0.09270716348223386	-0.6586132681003123	0.6007857473764913	0.4530839313322611
-0.5010349759247599	-0.5404105392428966	0.07137930995175959	-0.3492706265626633	-0.23995522885855636	0.9057767481912755
-0.7266561752347342	-0.1532141849086618	0.03135958264415061	-0.792404925158163	-0.06949645096702227	0.6060236611619011
0.9508441322251835	0.043458661839351785	-0.004633416120227709	0.9976809539288228	0.029947890407932422	-0.061121502172217124
0.26338332412241194	-0.8238835786103024	-0.0869425566256651	0.14999609634426803	-0.8707573664082707	-0.46827639266485904
-0.7353718984285832	0.10264800357810272	0.028230593103932854	-0.8001692660275165	0.05500229266640663	0.5972469284194146
0.47743816880625733	0.3063837631464978	-0.19391777777943933	-0.5073299035778929	-0.26958430569454284	-0.81849903546604
-0.6742209724756947	-0.12003904191040507	0.04622138797624762	0.23709962084104183	0.07832276120354324	0.9683229393515824
0.4965517339045625	-0.06554940162042981	-0.15361334094714543	-0.8175621333792333	0.06485025267290531	-0.572177072935169
0.6921004082690603	0.03360564091027269	-0.24346147007887928	0.004826000346807321	0.007581434340656934	-0.9999596149715198
-0.630654764086401	-0.18685793063737033	0.025433800783134383	0.6763808453806701	0.26643454726296184	0.6866742925338847
-0.678517992105901	-0.300420790741832	-0.02281970835436401	-0.813953655695684	-0.30754614880539555	-0.4928435986543817
0.4229445430357779	0.2064956389531904	0.07594140786898775	-0.8774123074660862	-0.3766313552274585	0.2971472109351956
0.4886902712972544	0.21653955390858196	-0.17570566585187442	-0.6289716479076368	-0.14179438208795542	-0.7643880031349565
-0.6499591305942914	0.003887295622852149	0.01973552032772724	0.9321769076219796	-0.048194096715291956	0.3587806320554672
0.8442791709506459	0.37797899411083014	0.10492221492893078	0.7605364113920644	0.42141400485908825	0.49395809888643877
0.47426020270245395	-0.23246026841065215	0.16765260648691144	-0.6815350386938078	0.24204183154549425	0.6905981051340444
-0.6687862430763453	-0.2534419166335843	-0.05281170449052876	-0.2726777339653116	-0.11995893167480565	-0.954597668188532
-0.4243954349468185	0.6714337924173887	0.021005038797807234	-0.6234103961104134	0.7526950863262628	0.21168274620704874
-0.5929709662565189	-0.3669031553441228	-0.06523880297472079	-0.09067900621332545	0.11149188568664392	-0.9896195618813322
-0.5906178896926438	-0.3563064470327997	-0.05894230965169785	0.05215161388336395	0.1481526970252348	-0.9875884707374365
-0.33638618434062656	-0.6684114725902061	-0.0889974849604182	-0.390698365373266	-0.321046663359029	-0.8627188575895928
-0.6377845815745553	-0.18729409527569724	-0.03986193259553134	0.6311050241093967	0.2750055579731449	-0.7253126164818571
0.5438103876604665	-0.729452163886388	0.002255073553618399	0.5203885603904259	-0.8539060222390616	-0.006344398997744494
0.34239430986058905	0.7120826243984634	0.1685271186834382	0.13760121411454443	0.46943262572924066	0.8721805522798329
-0.7415974663370659	0.12214995714170206	-0.018435012755331142	-0.9711692330583259	0.14121957539951696	-0.1920608036140732
-0.7221648655352361	-0.026361250488163422	0.04680270420427861	-0.47336978399609	-0.0010735166533931417	0.8808631534815667
-0.03761490091271651	0.5717296505202359	0.06459955119935495	-0.11830599501136041	-0.8927215922420999	0.4348009317941974
0.3540915753069916	0.5761338303143605	-0.19701586188946055	-0.15194123593678677	0.03215649214065669	-0.9878662970438911
0.041705006736869915	0.7295020480583687	0.15388082190473504	-0.1577589146038944	0.1922588273629623	0.9685807494287815
0.1296829642703673	-0.5877860031427641	0.13449060334032867	-0.26869573507359834	0.5405007174574655	0.7972838744018496
-0.19561112447069215	0.6398464510134684	-0.1214066921856319	0.004753500074231851	-0.25878335948398534	-0.9659236911326003
0.7624306702081398	0.3848495373522693	0.18557768085647613	0.5930935554518898	0.38092312440389486	0.7093219352140546
0.3678215156317674	0.32596621364029343	0.08940941718661502	-0.7909134001111188	-0.4523522683970544	0.41210850367434587
-0.693209407216468	-0.24091632738597638	0.04237679685421133	-0.57235229307753	-0.157088931655832	0.8048204272756263
-0.23575131281741715	-0.6089026685763966	0.10247864571334896	0.04657873899863949	0.41721916996734915	0.9076114726495332
0.5793890452990451	0.3416820259378873	-0.2340263884242524	-0.17229280362905436	-0.003138197501872955	-0.9850407816603731
-0.6400014412956935	0.2526582301411893	0.05580615774775944	0.13788002864874513	-0.17715108712786184	0.9744775985261225
0.21980862177708185	-0.849313133799816	-0.024999915599585913	0.09777552991863231	-0.9844783338318885	-0.14574757618814846
-0.6884885470244549	0.06577470754924244	0.04762511283822535	0.18002576978432183	-0.07224312235935679	0.9810054298959475
0.5805569356674093	-0.4963099171165366	0.21976429332046704	0.14361950849632527	-0.2684769096721835	0.9525195986183946
0.830870251913528	-0.2897714004865293	-0.16634724086111147	0.6713872457367093	-0.28644561327909274	-0.6835115777331349
-0.03894789395175263	-0.5747022567478115	-0.07385836137937286	-0.09876955021068504	0.8621816990120388	-0.49687754410910306
-0.58208885224135	0.4942473886739097	0.03699881117325195	-0.6816510857536169	0.5179819402215519	0.5167654273412959
-0.282877196570157	0.7542655891598163	0.05299019863988825	-0.46083787724840325	0.7609874647567522	0.45664705120724974
-0.22231754592404301	0.6143209416581231	-0.10408243007604585	0.016430085439243125	-0.48628051404213035	-0.8736482781734198
-0.54546008329524	-0.3359116771004566	0.03348360736699717	0.7310976221854548	0.47519310157750067	0.4895791897619108
0.34285024350548715	0.8195866775173449	0.009431010442691908	0.2846379708702456	0.9586113728642206	0.006742503559050289
-0.21905374568694033	0.6445317810082613	-0.11967739011870876	-0.09224385316699302	-0.23513816011227698	-0.9675748638797511
-0.4593725563499702	0.607972677198828	-0.06570459122613119	-0.5126807949587471	0.40595630891797313	-0.7565433746522152
-0.4538846052379493	0.5523850174842173	0.08142032473118672	-0.14807452822011882	0.04572954151659693	0.9879183888991389
-0.3090465031730651	0.6992025061069276	-0.08667111720278659	-0.35708745370642864	0.4703693834253277	-0.8069951632702247
-0.636361468753175	-0.41999714996380405	-0.017414322411818436	-0.8339541301003007	-0.45798970135913375	-0.30784077432598533
-0.6619568086042641	0.18870376785567103	-0.05078960221683827	0.1557398414648664	-0.1108628628788161	-0.9815571951826396
-0.5613265659459528	0.5246667873703198	-0.042299203448068895	-0.7128346961131635	0.5270297898041121	-0.4627162161371563
0.6695905552739334	0.14773701462777084	0.2458171489752295	-0.060354139330529674	0.04087679432848278	0.9973396941619729
0.3530077176625923	-0.5972243939964069	0.20140599258554398	-0.08662129930278681	-0.04355238590856512	0.9952888727343279
0.42283746383489657	0.42078829693956943	0.1949381431746713	-0.4034759206622069	-0.23934703015567999	0.883130896640719
-0.6787734822350191	0.19220978147436266	-0.057670854813669695	-0.07984716039871434	-0.057124335442922294	-0.9951689511216001
-0.6835921426178763	0.12994826736988654	-0.05569292809527677	0.07012258239467907	0.009976140709362667	-0.99748849620176
0.6757924299295565	-0.17742453895897378	0.25001186437404466	-0.022808384575996293	-0.04889765968294403	0.9985433373021747
-0.2926200265353963	0.5249717997395066	0.02370942852145682	0.31900957771168	-0.9002717517826545	0.29621556723171183
0.4380963692971456	-0.24069551373942724	0.12803763362554438	-0.7656832105260869	0.32847348092826956	0.5530229592388815
0.4503123214193778	-0.4245232065103526	0.20853938647079007	-0.29372864200879745	0.1503891034898296	0.9439844291169177
0.7020378609016908	0.008331844143862323	-0.24983076953052089	0.03970517249839247	0.006249631296796114	-0.9991918941752516
0.8261921189396635	0.17794460016419913	-0.2009574026064984	0.5473398508455221	0.1306930808316797	-0.8266428529293203
0.033412276841217656	0.6004479947617937	0.11968320100702726	-0.21043534937853137	-0.6262703050770713	0.7506680149777318
-0.5823650826124372	0.3618573523509902	-0.06403364598849016	0.05140160352940216	-0.2058591649611527	-0.9772307196133897
-0.6942302454228622	-0.22793818748814135	-0.05486134808970304	-0.5438359409239697	-0.07641177504825326	-0.8357055163114071
-0.08632572255089217	0.8286227286543953	0.05743950208544789	-0.19397211228233857	0.902056062811349	0.385577072972467
0.3510784960932693	0.4810644707697554	0.1807956571150267	-0.387539465881178	-0.3021528284599143	0.8709287173117007
-0.5788514606124054	0.27272590198166696	-0.0002033957357265206	0.8986554953014971	-0.4386536354284858	0.001135292823215589
-0.6389621400175111	-0.0947491478791468	-0.004135574976009678	0.9904614684163455	0.11369189615963449	-0.07784749405191257
-0.2072502639344315	0.6180943642621441	-0.10644774220664516	0.037200786856012885	-0.4542261403494945	-0.8901093836605111
0.20093537981396273	-0.5590279825870438	-0.14283743902685084	-0.32808664982629737	0.4979538185132604	-0.8027460026894058
0.511253250756882	0.7328888319380149	-0.04987843867433051	0.4565813010267971	0.839698725583799	-0.2940060642327304
0.46743131704792984	-0.08873833011122839	-0.1094067409691792	-0.8746162978050487	0.10753849141225577	-0.47273862173358405
-0.14639384400734864	-0.7970243938974085	-0.060715996060676264	-0.27930397046316463	-0.7965868158123683	-0.5361331336127462
-0.7049664703330528	-0.234957139258532	-0.01813348602674185	-0.8957626174857488	-0.2684942323691562	-0.35428827287898873
-0.3433927328320201	0.5289432902526838	0.06615796198359662	0.31491829926377074	-0.6849981570520655	0.6569657446352035
-0.21816449430715182	0.6407414065350653	0.11513435133838786	-0.0480490158146441	-0.2671687101730947	0.9624511272702052
-0.2765872807640768	0.7281670725375873	-0.08058186970435273	-0.345746284360011	0.5959157190341168	-0.7248061552300026
0.3002008879401351	-0.8263919342549332	0.04718517646395728	0.22683038119970167	-0.9401339435896687	0.25435437144923656
0.9413068229333271	-0.1338695544193302	0.020887755892284164	0.9833404485799411	-0.17177158683806013	0.05946498248327254
-0.256157348564157	0.535770140059358	-0.018276281184598484	0.28997055031416163	-0.9509416275590108	-0.10782903563475726
-0.058219661012282514	0.8225666254086869	-0.06641250974911513	-0.1937645820991976	0.8624923374127461	-0.4675064220181597
0.056373353655041494	-0.8081869646583761	0.11189798399742068	-0.10533992195327735	-0.6979869739736384	0.7083203265514836
0.05873989987434781	0.7752604095784879	0.13766795541266647	-0.05600006841529706	0.49580742861091953	0.8666250550680558
0.6140724432142658	-0.041898302984772165	-0.23819929587036037	-0.3859704980125038	0.042069522947219676	-0.9215513712772455
0.4514397152198021	-0.07258145609626458	-0.07546540212015815	-0.9341026118699559	0.16520133449014973	-0.3164819577486202
0.44165195242603345	0.22111918319848364	0.12295524652678433	-0.8113761540533946	-0.2666278131611516	0.5201714581581962
0.2724378032090445	0.7543217381741412	-0.1520770097513271	0.09535924492031725	0.5692401031833876	-0.8166225072430915
0.35479008030375914	-0.7546489220258498	-0.14075319312812604	0.18839908830872962	-0.6951089704318112	-0.6937790013755584
-0.6604538864781806	-0.21491129138779044	0.056223555528406265	0.07777427479980982	0.14971940066329348	0.9856648838445994
-0.22857562386330157	-0.6666959072708598	0.11721775457955938	-0.13079171158951391	0.0211369092686333	0.9911845233083776
-0.4433741085828653	-0.4897236349959717	0.07014871766088962	0.1483613083133005	0.43382684345084255	0.8886974693882295
-0.6017234495065874	0.23424147383501487	-0.008431212584229793	0.8732459551028725	-0.4514532702545628	-0.18338878557025579
0.8692899008879781	0.09410568067268905	-0.17850836921910768	0.6978942314437582	0.08720035507494123	-0.710872520071167
-0.4179093366793891	0.6529389182133977	0.06472135535577901	-0.4642884178795074	0.6195767870319301	0.6328987833722974
0.2525422392968514	-0.5049179035463836	0.14062731843075088	-0.4789202094990885	0.5470068719381053	0.6865995302837303
0.1308121153257771	0.7326342471289321	0.15873499687242626	-0.02835322139799408	0.3092278434310828	0.950565219058281
0.5302889372431178	0.07234022284480637	-0.1899794869434532	-0.6786566119534376	-0.08812350091214022	-0.729149814262384
0.03794924465363734	0.780717715755286	-0.13140663866114685	-0.09584292912733969	0.5170299787900079	-0.8505845836650789
0.14103589658819907	-0.8399285079953842	-0.06896570830999665	0.06782368961344427	-0.9038737473888384	-0.4223886787172181
-0.625624624153732	0.235610627666994	-0.0466602323678103	0.491459926807255	-0.2654956254694487	-0.8294451236816053
-0.23014136065148436	0.7309764385980689	0.09835505186536708	-0.25979166393426567	0.42694254671543996	0.8661572335057888
0.7939037432686643	-0.2177892359534282	-0.21187920939537866	0.4568032559367422	-0.15842146258412576	-0.8753476027032336
-0.6019932116666931	-0.4675035372998913	0.031905847273868033	-0.794901539393607	-0.5259295018153928	0.3025387608057651
0.4235493995701457	-0.3948787044525139	-0.1933116340127014	-0.5085300644881775	0.24432075478803622	-0.8256540088266117
0.5699148313807009	0.6902533351603362	0.06597052846655174	0.5257490486726767	0.7832993108227702	0.33170789481763846
0.018996874246763953	0.7910875408995284	0.11321508548187743	-0.08431418950238731	0.5811241067364629	0.8094355379017548
0.40369102397132633	-0.5309912366930406	-0.20251710402678916	-0.20973701266029018	0.02347372857150043	-0.977476019955113
0.13693509825606426	-0.5061971042397247	-0.00856438856655776	-0.4401921716732927	0.8971685765152074	-0.03632350907093295
-0.630818564605937	-0.1301793212953365	-0.0015582768678678058	0.9443289836064295	0.3149009549847799	-0.09528986971615167
0.28194948858698526	0.46526671463571245	-0.1338589307359554	-0.48615316419294874	-0.5824544612786469	-0.6514613583949438
0.4914481866642981	0.5024958674304874	0.22326095224380332	-0.03348947021318084	0.10920594902716768	0.9934548384712392
0.36169173645477926	-0.7635416141971226	0.12717830155219495	0.21934536749765046	-0.7158462489814039	0.6629115759862512
-0.5612585009778651	-0.508588998876634	0.05116819692200793	-0.591264832396071	-0.4279499119118279	0.6835676783364653
-0.2217010025434127	-0.5418219996849183	-0.0020359826624050414	0.21324805228154753	0.9765902717659805	-0.028226039222211625
0.6502176204410416	-0.12703122874936998	0.24693691710670237	-0.16562734699741063	-0.03165306240419019	0.9856803059648883
-0.6124583822942573	-0.417483037120188	0.0523425170654407	-0.5375877281340001	-0.33224955392194117	0.7749901086326166
-0.22383066884958375	0.54353123771988	0.005777692862215236	0.2236665936909467	-0.9722272707883814	0.06890129753541499
-0.05944003766034119	-0.8360941766283819	-0.0032411402512529186	-0.18698273945110955	-0.981888436847789	0.030537726371891623
-0.15171026168435606	0.7335021600624417	0.11671244880751927	-0.27716092767788664	0.3332112318985671	0.9011948152898861
0.6347449003643858	-0.02719319157940367	0.24438473625762733	-0.25856412648996224	-0.0012659926060846344	0.9659932658953707
0.16561798868319302	-0.8502042944202965	0.028570505015298286	0.10487088633805983	-0.9739437832299709	0.2010860619395629
0.0639228651692253	-0.7688305141663813	-0.13405525217282332	-0.06732213092304841	-0.5163774112675601	-0.8537107823031133
-0.6454677876137721	0.3600987055655614	0.04652600693791067	-0.5980085986086296	0.26875977497923276	0.7550853589782117
0.3804156996417675	-0.27580715130227723	0.022392913506775185	-0.882605704925572	0.46171259029497363	0.08847967899998735
0.14631485956011317	0.5883166567586733	0.1469374623599994	-0.2783600927576117	-0.4296001050698841	0.8590456381845591
-0.11326162980687565	0.5583963649328083	-0.02330620298048995	-0.02131145490518581	-0.9908975420388035	-0.13292058934297152
-0.06530996072956913	-0.8402288122908322	0.002255708431049875	-0.19686949066006662	-0.9798751132917618	0.032972200392185645
0.4230744762694826	-0.781292829492905	0.060060284730884816	0.36215745731882965	-0.8823624312428591	0.3004638348280051
-0.5234468653825142	-0.3680720426970308	-0.02356085238810181	0.6460950739962403	0.6243639439717777	-0.4390111853083022
-0.5331071792960824	0.36145310410159487	0.03554887380701892	0.6224387541132805	-0.5432432135020431	0.563433055794458
0.5774147127319952	0.5577741717255467	0.20119146024991608	0.2910384937414053	0.3876623118422594	0.8746510887993274
0.1208015556340211	0.7255380654097234	-0.16535341515986085	-0.1109239540662731	0.25628337863963896	-0.9602159685442407
0.866682253012347	0.16163660134411217	-0.16957846503570792	0.7017776570998284	0.15451857983943343	-0.6954366459138319
0.49925639473464856	-0.5949333327153586	0.20254874345787122	0.1751763190504597	-0.3326676500231961	0.9266312599259616
-0.7309503954074765	-0.15621137899788534	0.022906998200032756	-0.891903758158481	-0.13808759994660935	0.43062686971874203
0.0315793948496595	-0.6217980594323042	0.13839596112887587	-0.16544438486753488	0.4752944617634479	0.8641315467756038
-0.29549887181159734	0.7528139500531515	0.030468407205455666	-0.46631432807971396	0.8612730471513824	0.20189028128698583
0.39155196590931407	0.38115316716323777	-0.14717776912388789	-0.5841817690452977	-0.41904562698458286	-0.6950772785958443
0.198828160433612	-0.8006690515702541	-0.12138919179867347	0.05128720283787	-0.7110876036380667	-0.7012303778198281
-0.63488165454817	0.4089740682973371	0.03733158997285703	-0.7825985424479288	0.38343697421312994	0.4904239065998493
-0.5708273201938734	-0.2769683752370263	0.0006962958695771264	0.889575980026148	0.4201911031744493	-0.17914801861466043
0.042289542869017024	-0.6515517639496086	0.14957540179324552	-0.1487793116692718	0.27578724657866516	0.9496347250621027
0.8529043807076068	0.12134215280380146	0.2020505030125271	0.6294820618098746	0.13451797786604697	0.7652824625525004
0.3629467325033377	0.3111669186192014	0.033454041594416443	-0.8457948380048651	-0.5222285517932226	0.10912576091958322
-0.44250213830973983	-0.48265452996102526	-0.06848728996323176	0.31739165716899337	0.4623470378229231	-0.8279479165840621
-0.15322959103272793	-0.6989926218287271	-0.13277536602285825	-0.24245420780051083	-0.08082036526595017	-0.9667905800524259
0.4492895094696037	-0.17565117770370117	0.10883749242397216	-0.8486778815852101	0.25750596666325243	0.4619919159908139
-0.04220676829932314	0.8144978159887695	0.07982882487269265	-0.1642271229234445	0.783185453030232	0.5997082609553732
0.5237208854049562	0.7417605372951138	-0.02154770272343528	0.4790696842892238	0.8740278761044917	-0.08104017144166646
-0.736535422070597	0.15999803642959207	0.004574046540461908	-0.9699831974151814	0.19235363937578087	0.14877054194669195
0.7324581528337349	0.5228868280472347	-0.10937406100046489	0.7029646130196081	0.5474214808392102	-0.4540599907038707
0.8891770787535611	0.27572698618219105	0.07742623653690607	0.8989048351014755	0.312615850103185	0.3069876670087131
-0.47323236638558025	0.4229525612271835	-0.038951039886723875	0.6376055834585923	-0.5912425740009313	-0.4938535599053443
-0.7311220924867132	-0.20996559369327064	-0.0042775890784406325	-0.9748830048274313	-0.22156569571160717	-0.022622320448380764
-0.05476662811739114	-0.6111072424351103	-0.11044106232721684	-0.07364135978333691	0.5765259333209787	-0.8137535243165681
-0.11917938293712961	0.8122798369930219	-0.06086237203609351	-0.2463377821392218	0.8412307519615521	-0.48129878354815114
0.4484852586478462	0.09148251315565524	0.02566285343470983	-0.9845733710608824	-0.16270798143289433	0.06435363063450626
0.23550359286031106	0.8181881424938047	-0.09332572828106041	0.15451563014521538	0.820501544486115	-0.5503654563439888
-0.46018084561354156	0.4534597588675414	-0.05273976410340393	0.38108348874709985	-0.6217916545069979	-0.6842152534033346
-0.6922618400473189	-0.24992378753158562	-0.03441996200831482	-0.7088254857519075	-0.29070754144560224	-0.6426939832418113
-0.3857565303949293	0.47741354379526413	-0.010556451368528796	0.5311383313948714	-0.8387575938426781	-0.11990734629001187
0.8479551488525566	-0.38784579140404835	-0.06513536018115537	0.8506633917262132	-0.4328042313007516	-0.298416305427537
-0.7276465088294208	0.20134178998025754	-0.012539009627333429	-0.9444670187758373	0.21988806494073954	-0.24419518697406478
-0.6503389909638586	-0.07902315258876344	0.029858335743059308	0.864127797253512	0.14260613888213192	0.4826454590762498
0.8823198770631907	0.29776810940223297	-0.08614876036044485	0.885005465839619	0.3325615498139717	-0.32583453012123975
0.10712262805187782	0.8549265820320429	-0.013222071126848792	0.03104690341894363	0.995271631583798	-0.0920351517226921
-0.2988906306586403	-0.7163980430967307	-0.09174964721633666	-0.3162308784296808	-0.5273603617171709	-0.7885994423134768
-0.7485231710303673	-0.07367364839781088	0.00399078190576508	-0.9877852449137523	-0.10474394591993114	0.1153647074446992
0.6019953814426244	0.0057985233474133644	0.23181461380039747	-0.41659861554968997	-0.008499407667986097	0.909050798135822
0.8669646152880258	-0.29615286295050164	-0.1139470195698311	0.8241500141524776	-0.3386061370771854	-0.45400731063071775
-0.5246067661336107	0.5734860546798386	0.028596173513366213	-0.7127348123673773	0.6249297028655763	0.31854662722430965
-0.5902541323894298	0.254789317680678	0.0018664200877054264	0.8761214530846149	-0.47895150702597483	0.05492406906312727
-0.49044314442179593	0.4136656851412417	-0.04362464154365936	0.5308225209321635	-0.5688039528928734	-0.6282431968948536
0.5115260491926598	0.12671656717324578	-0.18617489733179263	-0.6960346768113197	-0.11079089409832846	-0.7094089839162282
-0.43528850373872635	-0.5885969279755252	-0.08113003717785723	-0.3600082348899899	-0.1298299224832396	-0.9238713449606444
-0.7293427682935613	-0.15833384982923637	0.020643576753026454	-0.9116114916221107	-0.13926679855795784	0.3867418352879959
-0.5195385758576214	0.571661224855881	-0.0385684770446997	-0.6139623432000212	0.6373366263786925	-0.46567399090841144
0.3738504374587048	-0.2957987890167832	-0.04253119277987404	-0.8548288149555363	0.4838767686122274	-0.18743257432768481
0.12190030513730335	-0.52117103960874	0.06403747302582963	-0.40105320775208403	0.8605797841343739	0.3139406945443627
-0.5637455847757158	0.5355084698988313	-0.008925992813456506	-0.7937621949925053	0.5967422180952001	-0.11764481690027853
-0.6445411215277427	-0.11767226636134347	-0.026498301121922828	0.7978888175178825	0.186691439315939	-0.5731664168163182
0.3781687866936019	-0.3916197459329039	0.1519058141224168	-0.5968264924382751	0.4089972289287282	0.6903038495129852
0.07535927886514501	0.559756207730593	0.0908333986013931	-0.308954420720493	-0.7712325578102548	0.5565496453064335
-0.6112614416752135	0.45307518808741903	0.035089975981080115	-0.7954241985819086	0.44546908906876004	0.41092290638826334
-0.7367489014371784	0.09561483481841013	0.021358388944214872	-0.9024612499377729	0.06608783772873678	0.42567134043190247
0.930191165704787	-0.160693633751567	-0.03529143337653043	0.9688210236301529	-0.19909058309390962	-0.1474746211914104
0.29132836619664826	-0.5386504807985646	-0.17894240152818947	-0.32920720068737575	0.36126351968975123	-0.8724169234700545
-0.1061147787254614	0.6180452431786176	-0.11471001791709465	-0.11617855149704343	-0.6237259902034414	-0.7729608226273729
0.21108533231983648	0.45801344505582486	0.011143324335287582	-0.5485851780557528	-0.830310648621409	0.09817601134408499
0.09438462015669377	-0.7294689870960244	0.15839920270052116	-0.0718459562450038	-0.25646309891675706	0.9638800949626749
-0.6081682472701121	0.4518875084763689	-0.03721629501583353	-0.7199448116291578	0.4421361568247748	-0.5349720432288716
0.709422199897826	-0.04009471494572464	0.25204699534668873	0.08300993970053708	0.011972461305244726	0.9964767985664332
0.4195651943448384	0.6068611288378135	-0.20300260282684363	-0.0015930057695474065	0.20923454304473116	-0.9778641870574258
-0.4824846721872214	-0.5975658550125976	-0.03358615664781798	-0.6247927607550601	-0.6545210802839032	-0.4257184064285472
0.47898729945426216	0.39482616882403254	-0.21723823717354282	-0.3386173995098564	-0.03945187756750343	-0.9400967004013898
0.5292600310357668	-0.7134583717694375	-0.0980857189121006	0.460886922190459	-0.7946584852598342	-0.39509636388905467
0.4360683784157491	0.11887459585897148	0.016267256932992098	-0.9685516447568053	-0.2399202333818267	0.06592414620529646
0.8010564346434266	-0.4093192350003175	0.12842598626896765	0.7103604038336501	-0.4347464131726682	0.5535193338075854
0.22958408818490103	-0.47047247337527154	0.07401368489131797	-0.5512935588440511	0.7433093589932747	0.37890184587841336
0.6417561345022949	-0.15145626261831396	0.24244358104946886	-0.18313745416002614	0.03698863901919309	0.982391222205946
0.25210751208860843	-0.8162173724453177	-0.1002180152029097	0.13483510772786078	-0.8250569594274128	-0.5487262590986597
-0.08462013405493779	0.5831054709708609	0.07791262113348725	-0.025276806540659502	-0.8698907628392276	0.4925963294403367
-0.6571687474440556	-0.31282592890595917	-0.0662010061624905	-0.37195753717748414	-0.18371258978048588	-0.9098886057606215
-0.18131461472685273	0.5743510103004383	-0.07902525537432742	0.044941839262235814	-0.7891615067965618	-0.6125392618227077
-0.05540574766724924	0.5710126862158134	-0.07287940542938011	-0.14626015717579202	-0.8520007919646906	-0.5026953519920921
0.3475089722180875	0.3292241347539782	-0.05586080809442948	-0.8104765806274054	-0.5451140299988145	-0.2144257600032216
-0.2017186160104401	0.6036146951428242	0.10090915523204776	0.009012034240321903	-0.5215404276768116	0.8531789762632103
0.5046542175199998	-0.2485568287196483	0.19712567800823086	-0.5616218095191569	0.16922015926640088	0.809904612142864
0.426789841683661	-0.6434553875700405	-0.1888376677129484	0.11243069576036135	-0.38424478958335995	-0.9163597985119605
-0.3637907023222122	0.6937155679265098	-0.06415913325706811	-0.45900149133930107	0.6133691769980897	-0.6427253563202424
-0.6579447472223116	0.1500029964832466	-0.047205651552458774	0.5174407902912188	-0.16872319249641143	-0.8389204448913014
-0.07114192450059911	0.8107490808990637	-0.08357649664378991	-0.20703175744911193	0.7734928522618167	-0.5990381113981077
0.11130825664735441	0.6340292665249704	0.1599570946053428	-0.21407424745330858	-0.2670601011465575	0.939601574579827
-0.6077826748809698	-0.473001764413963	-0.048953713580414566	-0.7102330622214824	-0.43738145732031486	-0.5516035334548294
-0.42036818983565827	0.6273788388934292	-0.08288704058183159	-0.3963089383673291	0.3402739709541597	-0.8527325782806988
0.17964384499127267	-0.7526543065856257	-0.14818197810187594	0.004351487878490323	-0.47164542709695456	-0.8817775545180172
-0.03228252339793834	0.5548422344803916	-0.02120553460661448	-0.1394808264860729	-0.9801517298673296	-0.14088181387547008
0.9371491931051322	-0.1642149911278883	-0.012162680904296029	0.9684156394265547	-0.2407722483889835	-0.06480643270363183
0.5277508137290221	0.7373646881268177	0.01518983256675904	0.4965238266403478	0.8679327935757268	0.012520200248462343
0.7832705488948819	0.400043422815201	-0.15514218388866946	0.6669341874164295	0.3953282313576819	-0.6315966902595311
-0.6815085178531448	0.33239226882534717	0.009103638621800091	-0.935004474384803	0.31589513046347334	0.16117350722083285
0.7365894363341459	0.39336856663533626	0.19026963574712902	0.5188558016552097	0.4196150587873998	0.7447898089579208
0.8573092579582946	-0.29958993628229075	0.12934372156081242	0.8022293670102708	-0.2891852247593074	0.522302544974854
0.9140784459828826	0.09552755315568554	-0.11708198561982244	0.8585914146701119	0.09462755007034004	-0.503851574794066
0.5740150530139402	0.27775052855215665	-0.23598627820355333	-0.277916157484304	-0.0408402380475754	-0.9597367786874571
-0.4457482468169005	0.4887127804950877	0.06886646283298538	0.23662957240589	-0.4959735356811395	0.8354739357795403
0.6345813250268496	-0.0771417570062407	-0.238688790373343	-0.2543174126338218	0.06462608195289007	-0.9649591303069036
0.49440196784506685	-0.21268891670354684	-0.1735925903015859	-0.664571075762501	0.1835454371776667	-0.7243316628114026
-0.7277792386331117	-0.13841426729910677	0.010041766605494079	-0.9614579893898049	-0.13458616711742105	0.23976050187459388
-0.2082067806333435	-0.7711340562152756	-0.06986485775382062	-0.34345266627299953	-0.690952075515249	-0.6361017963904337
0.5694488128091554	-0.7103182190994344	-0.015695847091167912	0.5562407861024152	-0.8285966291318655	-0.06343354055605568
0.44047754138140605	-0.26787155102957266	0.14727733186308503	-0.710096098745535	0.31364734743624306	0.6303878742429774
0.12859881893288147	0.6277361297845323	0.16052518475622926	-0.2004853289573731	-0.32002306034436234	0.9259540343454866
-0.08907398666015519	0.6646364497755289	-0.12600690283000263	-0.07031445191751867	-0.21994803261952867	-0.9729741727293372
-0.17171242153480468	-0.6011757462802277	0.09940719312154307	0.027731726168589384	0.5826223257614113	0.812269768542492
0.359783866209302	0.3119491292551563	0.029366546577251303	-0.8452736219887711	-0.5213828383348038	0.1169292087543911
0.5190060138336149	-0.4796658371286222	-0.22884571199299528	-0.026965077791381298	-0.10289910671602556	-0.9943262333946282
0.37190058490769434	-0.33003197573380716	-0.09720400471302322	-0.7629675350102513	0.4877422098372975	-0.4242500173994227
-0.06750892679093674	-0.557171923209847	0.016005549066965653	-0.012084889028432085	0.9936193155836451	0.11213657367807443
0.4401905636427847	0.1162262662802026	-0.0374547690138105	-0.9678253509004757	-0.18003410105852283	-0.17578911402706696
-0.5670646502389937	0.48555769018985356	-0.056317699220999565	-0.49502188870846797	0.3833564769242488	-0.7797378670423336
-0.5161901536855684	-0.5549947581310557	-0.05292643691195844	-0.5359209558091118	-0.4948532631541937	-0.6840387248323693
0.38228047892692674	-0.3722348161904108	0.15070256781493263	-0.6441828979151387	0.40330266830803707	0.6499041096725514
-0.6669950008863965	0.23104752154866023	0.055831819653495936	-0.19956130795262383	0.08167807035044428	0.976475282427602
-0.44427468387351365	-0.5990071113419746	0.07741576222883124	-0.34525110169451295	-0.38387778325662525	0.8564108385002522
-0.5361115538954164	-0.4606809198275302	0.07389663346519311	-0.09284233920621265	0.08122463889465416	0.9923622615190242
0.444818241616622	-0.12219294509554444	-0.07356079149435965	-0.9300300308929752	0.19503957182801188	-0.31145418131461444
0.3841718108577588	0.3957264794857686	-0.16136475091402674	-0.5042578777651343	-0.3889063519028266	-0.7710225951043446
-0.6517235248784451	-0.3304636383303776	-0.05130963234839069	-0.47678217936990985	-0.2811703987222701	-0.8328396966509455
0.3136965413213711	0.48963943008220445	0.16602701402888143	-0.40825928269666406	-0.3790540221127125	0.8304471123510403
0.5947206310600281	-0.27348299915426905	-0.23843326633118508	-0.1430005834271102	0.007810176252312957	-0.9896917875209503
-0.6868695186264756	-0.32277729005500416	0.006588979795153378	-0.8890135405081515	-0.3815049783029191	0.25319730710110555
0.4672384609983029	0.5861797800346287	-0.20960232101082138	0.03317328579577473	0.20331070054499553	-0.9785521407433615
0.6278636963342206	0.5851693233033536	-0.1595375934921207	0.4135113306435445	0.519353808649261	-0.7478502529724199
-0.49378900680935356	0.39310015907172824	0.01880135697262054	0.7032018214863714	-0.6439486936926885	0.3013922330613884
0.5811908994037819	-0.6025932169352004	0.17099245732397805	0.3486790688139642	-0.4950480566342653	0.7958331034794065
0.2632302308779509	-0.8347297587063355	-0.03334251851448733	0.1962494267984699	-0.9525456659149252	-0.2326863056304876
-0.7138561982539081	-0.1594573111361653	-0.048841721628820604	-0.5693855212942586	-0.06314729290172513	-0.819641719008768
0.6031346884268355	-0.43245143846622597	0.2299460638504559	0.040921846647798285	-0.14730541032159986	0.9882441593841675
0.5280571501030766	-0.12856750592522034	-0.198145176464605	-0.616993137493976	0.05064207401363105	-0.7853374106872397
-0.49689886811657125	-0.5186073461270165	-0.08325473075498561	-0.25408059801008076	-0.05311307357651407	-0.9657235894033528
0.175192269777843	0.5694917546614879	0.14607482362867572	-0.308309208258134	-0.4787113429627519	0.8220589286797151
-0.6782359836810339	0.2613932068179611	-0.041366933453440766	-0.47262519837750433	0.2059618913669061	-0.8568577018170472
-0.3174307828979204	-0.5765091073293125	0.08813350732418479	0.07141445820797485	0.451397442657977	0.8894606927350421
0.28041622526753035	0.5036644708908549	-0.16183041901435513	-0.4753819941777583	-0.42367549267613347	-0.7710454179341275
0.20022967305260117	0.7456785147586137	-0.1624329740784251	-0.026774828231159592	0.449326491902951	-0.8929662996145933
0.16806329926186692	0.4976430144420304	0.059507387366586076	-0.4714689298560881	-0.8266729213588946	0.30713015037977814
0.5200608323646203	-0.13779275484541728	0.1873618881516551	-0.6627620736026559	0.11248978295692422	0.7403326836795822
0.5912692685890433	-0.13246212142526173	0.2325840619445589	-0.353946412077813	0.0571996363957309	0.9335149377344952
0.6532799061955139	0.3725292363749204	-0.2313913357384836	0.18727050686108054	0.18165972733021216	-0.965364957270724
-0.4193917326468261	0.5304291557401826	0.08612651724605822	0.03131418374884573	-0.26586457053293067	0.9635016616651388
0.8089060059374955	-0.41827436627778053	0.11449629622252318	0.7646698213591436	-0.44615301532358465	0.46500274323948665
0.7358567653996977	0.41506604209651626	0.1855165455176209	0.5392042454205246	0.42135295600122147	0.7291916539494379
0.10180657719001356	-0.5270279869785206	0.04387713581347784	-0.375531837968	0.8903257999898792	0.2574797245313833
0.45124151618471514	0.18273006246065493	-0.10508540577157169	-0.8809328402151901	-0.2834590018209382	-0.37895689110646297
0.12839519049454884	0.5147755101176263	0.052747504197354286	-0.415577735652658	-0.8612941633506694	0.2923482680090299
-0.7438817916448215	-0.11992510880017693	0.0009000138243130387	-0.959859340315219	-0.27761771423286763	0.03998063973663615
-0.42268602008175604	-0.454793659752743	0.0035352796619510475	0.5168756264376454	0.8454692250863973	0.13424371950485398
-0.6636424204100694	0.18195809893970286	0.058623125653479304	-0.0075505763246636	-0.07291270959807236	0.997309744049577
0.07319888331619946	0.6141655568251595	-0.13276197815326982	-0.23668147586992683	-0.49514815735903994	-0.83594867141708
0.41227052410278503	-0.21406669836481282	0.03753293728753058	-0.9384039030058462	0.3363041175848809	0.07935776785450403
0.5109105547189571	0.43385194460735604	-0.22417003953476725	-0.15851379841462493	-0.029235471961814353	-0.9869238384451648
-0.4410637353877139	0.4381847227604373	0.009504607695170687	0.5928926474068048	-0.7947454681015886	0.12983816689608735
-0.43861205821073934	-0.4657914775461912	0.04906138981593901	0.42543130785848715	0.6931300051370136	0.5818754147346153
0.1307152965064111	-0.7559277879423145	0.15367446500261095	-0.06985353454255538	-0.3950713462617955	0.9159907832914068
0.8103359055433652	0.4157528936840486	-0.10608076852394685	0.773691934952934	0.4514816667995621	-0.4444829516783223
-0.5925098815325117	0.48159919662967815	0.03264683637721787	-0.7230690449073688	0.5076491636468407	0.4684692977617726
0.5743361087336971	-0.2661316352901646	0.2313088276056236	-0.2717587987775407	0.05812486223392343	0.960608481993197
-0.6291026356798305	-0.16374041118907026	0.0020214829409291733	0.9164829832100531	0.39996584367575116	0.009287915759007462
-0.6177612581466252	0.45020667237035344	0.025483762095774794	-0.8139980123495955	0.4468718911548936	0.37109668387976125
0.15289849676825562	-0.6672717534624334	-0.17383870364963935	-0.19003714994700593	0.02207621864056085	-0.9815286660156965
0.4912613738631082	-0.745920838582147	-0.07068882197775116	0.42361583114828305	-0.8354727642821289	-0.35004983608527296
-0.5030994721003174	-0.4024703181622463	-0.04580332662539612	0.4628750686490854	0.5967246504843742	-0.6554894067240191
-0.23175130739419805	0.5487854493140811	-0.0360007003722092	0.21036829331739976	-0.9349582658613969	-0.28565402546467494
0.7508977745210246	-0.33632323766587024	0.2056227287353486	0.484691058907681	-0.23659261544970944	0.8420798725356268
0.16369512219002977	0.7140557870286871	0.16727669001314444	-0.09472502853944029	0.20851014829993908	0.9734221525238362
0.5121382427610824	0.29768726604214285	-0.20667638971601976	-0.4537209216719109	-0.2386381698945088	-0.8585971984036469
-0.6904189687783774	-0.17213206048198854	-0.04953073336067031	-0.14420516508619635	-0.0779642972104379	-0.9864717120743733
0.014657216420045967	0.5461167292896157	-0.013986089117536193	-0.18456070584893203	-0.978433093876918	-0.09276867285342082
-0.6330965376926919	-0.34975799218412823	-0.05943750594342273	-0.3507724535756482	-0.14940128226801774	-0.9244663015325076
0.2611732880832879	0.4223402041243729	0.005694877900128453	-0.6408274598760817	-0.7669174900738681	-0.03431807231719157
-0.31813713733992505	0.5759285125652316	0.09534307169460685	0.09387640433794328	-0.4510066437407062	0.8875698440181045
-0.2354330301789358	0.7863660656663437	0.02763882067474417	-0.3700012268125064	0.8978167712190943	0.23879727275444493
0.4819250605503049	-0.12462363443343674	-0.15398501199220369	-0.7996317190538945	0.16918222850519601	-0.5761653299539373
-0.6743753527113944	-0.22701592295742262	0.053569701082781106	-0.2215757615860014	-0.025878709986658283	0.9747997098106926
-0.7363113306847248	0.15881521028683573	-0.016462947721858103	-0.9283668180647482	0.20206518962950448	-0.31193702931252965
0.5990776319834902	0.10231138956615943	-0.22893102572298693	-0.3848126548998862	-0.07346948580743194	-0.920066005938755
-0.3676393076505479	0.5227481276612161	-0.0715701881815029	0.244250603920072	-0.5904400149267703	-0.7692348349223106
-0.0037421711314975467	0.8231844800918826	0.07676110936791983	-0.11184775928412335	0.814479445955745	0.5693095035731829
-0.46359557208786883	0.5420723392507611	0.08415687749810169	-0.20214133622346112	-0.005449807094513821	0.9793411968218358
-0.02374843738515194	0.5613712498413835	0.051365020644582746	-0.14387055701042378	-0.9316572884148335	0.3336404648255819
-0.6105983206880666	-0.45649394167717994	-0.020419798532953223	-0.8137102044784585	-0.47823400673890537	-0.33040571715101713
0.5620231420696793	0.2673207278724045	-0.23065219284855606	-0.3542260747119243	-0.07505702554934982	-0.9321428704387904
-0.7447703709206933	0.07223669841822551	0.003084550888451175	-0.9923986368700869	0.12039107876258782	0.025513402218700906
-0.6495380913991684	-0.40777662858761793	-0.02495946788499755	-0.7950984789844554	-0.5283799461493311	-0.29771301823036933
0.4877989900925256	0.05767663272944141	0.13316294596430073	-0.8628133337905523	-0.0806567211742005	0.49904673564973956
0.4494493576169231	0.5116070835218322	0.21766981236574273	-0.16745007507923548	0.01935441774088872	0.9856905593896447
-0.7068561963728992	-0.02483254084300559	0.04904407578365225	-0.1454849787347809	-0.04770723032978475	0.9882095633704431
-0.542847847628874	0.5478517090742355	-0.037602269032604635	-0.6915822341291133	0.610118988225249	-0.38661199366287374
0.6889813316752899	0.4287910003646729	0.20925503395093603	0.41832387468040283	0.3251042762707184	0.8481228362819075
0.557331505860924	-0.2956980051401017	0.22492251341087607	-0.3234455191716107	0.09917830922704053	0.9410348872951908
0.537571002751863	-0.7271123261759379	0.047843481152116014	0.4883379083053761	-0.8432094757419302	0.22477514838377693
0.5796053366081548	0.7050090495796905	0.033336989356685144	0.5574520871856089	0.7993568982596279	0.2242224781264252
-0.2672936983497462	-0.5383816000238006	-0.02492001215353643	0.2879726295040682	0.9392601070470814	-0.18671426288962842
-0.6775049966845632	0.06677899062851554	-0.04612224069427595	0.32839281140550824	-0.009710776124385978	-0.9444913245997807
0.6896444832173313	0.0618244947593264	0.251348714211487	-0.02944151733794988	0.009062668391608398	0.9995254199361124
-0.7251654937211297	-0.20692235737828563	-0.012765399852213824	-0.9245295938026664	-0.2038382195649801	-0.32201709648348675
-0.6379038959637928	0.13394710597794962	-0.016278037417900994	0.9218853196280556	-0.19493436047879714	-0.334855271063486
-0.6032360898034763	0.3679016562294444	-0.054260639212330326	-0.00429108926610508	-0.0745056392978459	-0.9972113598759943
0.700952126134403	0.5991261535795931	-0.030030018653146938	0.7114183717448628	0.6920709824762934	-0.12215422857267938
-0.21710614678227505	0.7884592611088924	0.036873527163521505	-0.36278050722484356	0.8889402671510429	0.27959882870841385
-0.292586473397675	-0.7231316936739394	-0.07973862513238783	-0.35575167290753223	-0.5871639385449412	-0.7271033327498126
-0.7310931553909288	-0.020616458389132997	-0.03020499259242882	-0.7511547747921244	0.00532213064028033	-0.6601046729363772
-0.32815390321755794	0.5090088003709798	-0.002521735273397076	0.42512909965613577	-0.9036092779135356	-0.052493061390445545
-0.6190021158164942	-0.17346036630742442	-0.006998430066113679	0.9368441117738683	0.33456615201829104	-0.10192448262466251
0.5661866332079867	0.5129981733438048	-0.21332317836497316	0.14587616057422997	0.2622352338454742	-0.9539144762011587
0.4654887400036494	-0.12333004384754069	-0.10737660272050743	-0.8669808951030621	0.19145965816435062	-0.4600949106672274
-0.22480089430586309	0.59292546631448	0.09361180814160817	0.06858332104683112	-0.6164939323518491	0.7843669800849219
-0.5799148441236117	0.2726065387960215	0.008321384679658567	0.8844547117467281	-0.4514529158054734	0.11802596188868053
-0.19310990636431766	0.7169977698627685	-0.11511619309007312	-0.20648234587530884	0.29868195674273007	-0.9317478894841473
0.3185735700487169	-0.815428373971023	-0.04683698388246119	0.26031316260741233	-0.9213752050957162	-0.2886256897924254
-0.25535384168167163	0.7620369179668842	0.0536850405014356	-0.3868992590189174	0.7877167413177286	0.4793863773809087
0.6147095322864157	0.5088656869214288	-0.20569981258705908	0.27602368433684543	0.33965455218257035	-0.8991360914048394
0.35914733877373306	-0.7809728176329069	0.10632798554973438	0.2556567527412527	-0.7982726872369437	0.5453442413643947
