0.502935	0.160846	0.130393	-0.827045	-0.120058	0.549166
0.556987	0.217865	0.210554	-0.583951	-0.161627	0.795536
0.496798	0.217987	0.116346	-0.810908	-0.223748	0.540708
0.468007	0.178898	0.106274	-0.906062	-0.166516	0.389003
0.541728	0.221294	0.153821	-0.685351	-0.187464	0.70367
0.579193	0.15516	0.163558	-0.614646	-0.0609711	0.786443
0.587398	0.224711	0.177163	-0.547611	-0.178765	0.817414
0.516481	0.204741	0.18599	-0.697822	-0.125229	0.705239
0.511184	0.213837	0.127996	-0.750982	-0.220696	0.62235
0.507847	0.0979254	0.0900459	-0.96549	-0.103201	0.239119
0.484128	0.098929	0.110763	-0.925075	-0.0227707	0.379101
0.533359	0.14981	0.104382	-0.835999	-0.0587908	0.545573
0.58139	0.137309	0.165616	-0.628136	-0.0536762	0.77625
0.527542	0.173318	0.175422	-0.696448	-0.125442	0.706558
0.549978	0.14064	0.192948	-0.693372	-0.0830583	0.715777
0.58666	0.216792	0.19703	-0.547788	-0.158667	0.821433
0.574479	0.217103	0.146112	-0.638156	-0.135873	0.757822
0.5212	0.190908	0.126065	-0.772579	-0.201984	0.601933
0.538732	0.155038	0.183649	-0.695139	-0.115606	0.709519
0.54436	0.21161	0.200841	-0.599303	-0.120246	0.791439
0.556395	0.188206	0.146471	-0.696448	-0.125442	0.706558
0.472586	0.248155	0.019506	-0.932895	-0.311045	0.181542
0.460728	0.234192	0.0525768	-0.914245	-0.298037	0.274463
0.465352	0.257636	0.0469861	-0.892141	-0.363152	0.268711
0.490447	0.244926	0.0299491	-0.92476	-0.296657	0.238355
0.484545	0.248476	0.0730775	-0.857464	-0.337395	0.388484
0.482482	0.230411	0.0527023	-0.916094	-0.274164	0.292583
0.485056	0.245831	0.035002	-0.923844	-0.290632	0.24909
0.477428	0.281331	0.0835207	-0.812553	-0.405593	0.418631
0.4723	0.228415	0.0146783	-0.932749	-0.3176	0.170613
0.477695	0.303022	0.073866	-0.799389	-0.440602	0.408469
0.478858	0.27382	0.0734976	-0.818867	-0.412456	0.399171
0.460821	0.289874	0.0874467	-0.791456	-0.446954	0.41693
0.439083	0.318173	0.139253	-0.727762	-0.428384	0.535583
0.570347	0.228179	0.211951	-0.547611	-0.178765	0.817414
0.481103	0.219903	0.172964	-0.703736	-0.207836	0.679382
0.473953	0.270295	0.106322	-0.800346	-0.372463	0.469806
0.480291	0.281364	0.0915322	-0.799595	-0.402089	0.446064
0.492725	0.240073	0.118622	-0.802073	-0.234615	0.549213
0.585201	0.280539	0.195768	-0.496842	-0.214444	0.840929
0.513532	0.315892	0.162139	-0.630089	-0.35413	0.691072
0.493661	0.281317	0.156186	-0.749642	-0.268507	0.60493
0.503675	0.31188	0.167353	-0.648613	-0.344418	0.678733
0.468615	0.27092	0.135033	-0.759562	-0.341772	0.553405
0.578321	0.283495	0.179619	-0.565625	-0.231836	0.791404
0.503489	0.25879	0.125443	-0.784854	-0.273215	0.5562
0.529253	0.298231	0.209842	-0.549871	-0.249946	0.796975
0.502691	0.289288	0.123651	-0.753408	-0.354093	0.55407
0.462913	0.339755	0.125462	-0.726233	-0.430633	0.535855
0.545847	0.333992	0.210613	-0.502477	-0.260973	0.824264
0.568258	0.276491	0.195145	-0.518862	-0.228076	0.823871
0.558669	0.296444	0.207278	-0.529809	-0.237786	0.814101
0.461211	0.268215	0.0984439	-0.799492	-0.405354	0.443285
0.493057	0.304986	0.142437	-0.72295	-0.383783	0.574503
0.540685	0.291538	0.168861	-0.65508	-0.275081	0.703705
0.550636	0.255267	0.179037	-0.60555	-0.212049	0.767036
0.482782	0.243206	0.143416	-0.802856	-0.254933	0.538916
0.505947	0.282014	0.140203	-0.772295	-0.264809	0.57744
0.492574	0.331423	0.218532	-0.517973	-0.28172	0.807674
0.546683	0.279222	0.14676	-0.675823	-0.264555	0.687949
0.55364	0.241105	0.186026	-0.59026	-0.19725	0.782742
0.573684	0.234874	0.177939	-0.567402	-0.201739	0.798346
0.538621	0.270828	0.124932	-0.702534	-0.274376	0.65663
0.458388	0.293668	0.111359	-0.772636	-0.447708	0.450101
0.506726	0.307207	0.1057	-0.749727	-0.387286	0.536581
0.580465	0.274582	0.235345	-0.584991	-0.259718	0.76833
0.523238	0.305897	0.23287	-0.516489	-0.253672	0.817857
0.594952	0.250073	0.192847	-0.504013	-0.203388	0.839407
0.537185	0.351845	0.2289	-0.39971	-0.131533	0.907156
0.564773	0.32682	0.240723	-0.396822	-0.146854	0.906072
0.577861	0.0934284	0.201443	-0.612911	-0.0537307	0.788323
0.585686	0.109399	0.198288	-0.610708	-0.0563213	0.78985
0.615578	0.176159	0.210656	-0.4826	0.0102284	0.875781
0.623398	0.134074	0.17426	-0.565001	-0.0263212	0.82467
0.623781	0.110681	0.182066	-0.525144	-0.0282648	0.850544
0.619558	0.157677	0.216103	-0.481327	-0.0144432	0.876422
0.60545	0.179401	0.206477	-0.502997	-0.0525181	0.862691
0.59256	0.130076	0.194845	-0.592363	-0.0369482	0.804823
0.603504	0.135693	0.176906	-0.594316	-0.0541182	0.802409
0.590397	0.204807	0.222073	-0.480825	-0.087895	0.8724
0.598299	0.217106	0.229656	-0.475058	-0.110464	0.872993
0.634397	0.208589	0.21022	-0.388834	-0.088965	0.917002
0.620114	0.207189	0.235601	-0.415999	-0.110808	0.902589
0.609013	0.0934782	0.248097	-0.459641	-0.0215623	0.887843
0.600223	0.251098	0.198961	-0.48835	-0.202614	0.8488
0.625709	0.251289	0.203604	-0.41391	-0.180738	0.892195
0.598933	0.242877	0.22617	-0.472657	-0.159016	0.866781
0.45139	0.42073	-0.229333	-0.413905	-0.284235	-0.864808
0.555635	0.38454	-0.246358	-0.164498	-0.150195	-0.974875
0.569208	0.413262	-0.222374	-0.12698	-0.0995886	-0.986893
0.571394	0.466236	-0.213563	-0.0463304	0.0811719	-0.995623
0.537986	0.425871	-0.214932	-0.304914	-0.0379069	-0.951625
0.494147	0.449127	-0.212982	-0.398921	-0.145301	-0.9054
0.55467	0.394318	-0.203551	-0.243711	-0.131821	-0.960848
0.53458	0.381029	-0.224618	-0.339334	-0.183884	-0.922518
0.580325	0.454608	-0.194733	-0.0192629	0.0670842	-0.997561
0.554138	0.475507	-0.207135	-0.164492	0.103427	-0.980941
0.530187	0.444645	-0.242374	-0.304549	-0.0161613	-0.95236
0.572248	0.442389	-0.217018	-0.0409387	-0.0131982	-0.999074
0.532971	0.451805	-0.273411	-0.0407552	-0.0140001	-0.999071
0.472215	0.418581	-0.198621	-0.413905	-0.284235	-0.864808
0.555439	0.376307	-0.26985	-0.242625	-0.141911	-0.959685
0.471355	0.461113	-0.187674	-0.388111	-0.275823	-0.87937
0.509284	0.434125	-0.181049	-0.441041	-0.244271	-0.863606
0.560402	0.481587	-0.213268	-0.117524	0.124147	-0.98528
0.560402	0.481587	-0.213268	-0.117524	0.124147	-0.98528
0.544789	0.366306	-0.209415	-0.385406	-0.181337	-0.904754
0.487633	0.381006	-0.227969	-0.433301	-0.225646	-0.872545
0.486862	0.461404	-0.219937	-0.320364	-0.149835	-0.93537
0.490803	0.377227	-0.172624	-0.539504	-0.300555	-0.786513
0.573572	0.493624	-0.283921	-0.0172865	0.0561489	-0.998273
0.500915	0.444219	-0.152481	-0.439524	-0.313447	-0.841766
0.452089	0.375537	-0.167352	-0.567661	-0.350248	-0.745042
0.459754	0.351203	-0.185394	-0.593586	-0.376749	-0.711137
0.483973	0.376961	-0.170355	-0.544121	-0.311835	-0.778904
0.459287	0.357659	-0.158879	-0.641513	-0.425981	-0.637966
0.455333	0.500329	-0.203087	-0.273527	-0.132984	-0.952627
0.49522	0.544343	-0.227352	-0.0851093	-0.0431379	-0.995437
0.579136	0.601629	-0.215007	0.17987	0.332043	-0.925956
0.578751	0.572977	-0.235352	0.136245	0.242547	-0.960525
0.488944	0.53048	-0.201803	-0.0876328	-0.0792508	-0.992995
0.480716	0.57663	-0.228839	-0.0935614	0.0153146	-0.995496
0.539747	0.498785	-0.231917	-0.0287647	0.160774	-0.986572
0.58082	0.526658	-0.178802	0.0629529	0.161406	-0.984878
0.575944	0.608308	-0.221259	0.18283	0.329325	-0.926347
0.542872	0.558169	-0.223578	0.00679768	0.173413	-0.984826
0.547918	0.506508	-0.183949	0.0363124	0.181672	-0.982689
0.497734	0.576099	-0.206612	-0.025799	0.083136	-0.996204
0.490944	0.59746	-0.199418	-0.014468	0.161868	-0.986706
0.55434	0.518368	-0.198153	0.0332168	0.183986	-0.982367
0.476881	0.527366	-0.225306	-0.142108	-0.0610994	-0.987964
0.523784	0.593716	-0.236383	0.0169162	0.187222	-0.982172
0.49877	0.586225	-0.201363	-0.0173164	0.118697	-0.992779
0.568583	0.568568	-0.215301	0.124849	0.232114	-0.964643
0.564386	0.534119	-0.176566	0.0527605	0.161885	-0.985398
0.570127	0.490016	-0.17526	0.0233203	0.18022	-0.98335
0.539049	0.624713	-0.206687	0.0814968	0.289654	-0.953655
0.604688	0.490412	-0.272854	0.0644232	0.174387	-0.982567
0.652139	0.357617	-0.200371	0.0384153	-0.0160023	-0.999134
0.661192	0.367631	-0.260792	0.0499582	-0.0275482	-0.998371
0.653564	0.487394	-0.221423	0.180637	0.191311	-0.964764
0.695707	0.455331	-0.227455	0.220577	0.171526	-0.960169
0.683114	0.425985	-0.280354	0.102283	0.0419907	-0.993869
0.698123	0.445864	-0.240167	0.180263	0.0713736	-0.981025
0.636434	0.409901	-0.243504	0.0521078	-0.0451723	-0.997619
0.720725	0.44975	-0.227464	0.272532	0.127248	-0.953695
0.604246	0.39194	-0.275842	-0.0363141	-0.108067	-0.99348
0.646166	0.393674	-0.188898	0.0513809	-0.0322709	-0.998158
0.59225	0.376599	-0.260782	-0.045369	-0.0825621	-0.995553
0.710956	0.420267	-0.216769	0.272021	0.145642	-0.951206
0.646726	0.38632	-0.218158	0.0408334	-0.0398194	-0.998372
0.663285	0.434817	-0.229438	0.0897351	0.0295246	-0.995528
0.629609	0.457422	-0.239072	0.124715	0.0774986	-0.989161
0.615497	0.465674	-0.181445	0.0855892	0.132027	-0.987544
0.619533	0.418449	-0.22224	0.0493283	-0.0540926	-0.997317
0.605875	0.478305	-0.202466	0.0855892	0.132027	-0.987544
0.591285	0.420257	-0.236149	-0.0192179	-0.0671412	-0.997558
0.612393	0.456093	-0.196213	0.0823064	0.0916843	-0.992381
0.667181	0.422192	-0.221146	0.0830338	0.0220333	-0.996303
0.613614	0.405245	-0.253645	0.0218464	-0.056021	-0.998191
0.626139	0.374356	-0.253379	-0.0201508	-0.0532928	-0.998376
0.653624	0.37227	-0.227501	0.0447642	-0.021329	-0.99877
0.63377	0.443152	-0.214251	0.123879	0.0565653	-0.990684
0.655993	0.37303	-0.174194	0.0459171	-0.0280395	-0.998552
0.616288	0.394112	-0.170889	0.0623475	-0.0315495	-0.997556
0.735512	0.407017	-0.235631	0.246832	0.112951	-0.962453
0.581671	0.525228	-0.247635	0.0641304	0.183399	-0.980944
0.659644	0.582298	-0.210767	0.275197	0.349756	-0.89551
0.623957	0.582054	-0.191531	0.268099	0.359511	-0.893798
0.628653	0.49827	-0.204655	0.156188	0.201344	-0.966988
0.663378	0.55427	-0.184847	0.298141	0.322399	-0.898427
0.614431	0.547572	-0.266595	0.121945	0.211331	-0.969778
0.628104	0.533191	-0.231089	0.163985	0.238408	-0.95722
0.648896	0.511106	-0.225131	0.187657	0.229116	-0.955139
0.676834	0.527666	-0.183298	0.242658	0.306112	-0.92055
0.635688	0.507434	-0.251271	0.0838817	0.17206	-0.981509
0.600995	0.549377	-0.190739	0.14931	0.230662	-0.96151
0.629092	0.588778	-0.23217	0.257146	0.331874	-0.907599
0.681463	0.568047	-0.229509	0.268752	0.314861	-0.910294
0.656905	0.620855	-0.201249	0.320187	0.429712	-0.844292
0.675272	0.542025	-0.206029	0.256068	0.314302	-0.914135
0.637013	0.50996	-0.213549	0.199226	0.207174	-0.957804
0.598679	0.560684	-0.191457	0.163161	0.25471	-0.953153
0.674576	0.5423	-0.168824	0.473291	0.487866	-0.733473
0.653545	0.649265	-0.220972	0.282308	0.397815	-0.872952
0.643292	0.634537	-0.197623	0.354353	0.461477	-0.813309
0.635362	0.608934	-0.169521	0.430713	0.45161	-0.781367
0.666293	0.587052	-0.14046	0.424887	0.452689	-0.783929
0.686295	0.563698	-0.174625	0.450074	0.501452	-0.738904
0.449909	0.400825	0.20428	-0.486291	-0.22848	0.843396
0.522965	0.459809	0.174136	-0.32182	-0.158379	0.93346
0.520577	0.421187	0.199092	-0.319086	-0.144791	0.9366
0.530818	0.463767	0.193786	-0.295496	-0.112983	0.948639
0.510989	0.367042	0.216669	-0.44987	-0.181662	0.874423
0.508795	0.383905	0.198405	-0.445437	-0.18469	0.876057
0.563494	0.470739	0.19549	-0.139729	0.0261509	0.989844
0.47267	0.388682	0.204498	-0.525572	-0.232606	0.818333
0.58606	0.391199	0.168419	-0.224156	-0.176943	0.958356
0.516556	0.376228	0.207324	-0.417122	-0.164133	0.893907
0.478497	0.459115	0.154662	-0.414254	-0.253926	0.874023
0.492832	0.37044	0.188207	-0.528602	-0.281004	0.801009
0.488166	0.385186	0.181854	-0.556412	-0.264955	0.787531
0.506951	0.450323	0.15997	-0.410962	-0.226801	0.88299
0.553492	0.472111	0.219316	-0.163076	0.0498288	0.985354
0.486973	0.426982	0.180713	-0.454487	-0.197565	0.868568
0.560958	0.419449	0.184428	-0.236307	-0.142517	0.96117
0.470107	0.409986	0.184832	-0.516762	-0.24309	0.820893
0.465092	0.361223	0.178724	-0.613774	-0.357265	0.704019
0.50213	0.362246	0.175925	-0.54973	-0.310595	0.775454
0.507211	0.398115	0.203413	-0.401315	-0.166744	0.900635
0.507163	0.441824	0.203301	-0.326763	-0.151098	0.93295
0.499651	0.382451	0.224765	-0.445448	-0.184743	0.87604
0.446652	0.434816	0.231742	-0.406704	-0.264027	0.874575
0.45478	0.462842	0.23123	-0.399176	-0.275024	0.874655
0.483897	0.449606	0.251626	-0.366867	-0.182135	0.91227
0.491427	0.40628	0.241376	-0.3518	-0.159519	0.922383
0.523389	0.475267	0.225525	-0.284273	-0.0956239	0.953963
0.533806	0.359902	0.235992	-0.312511	-0.0621091	0.947881
0.537296	0.450113	0.235569	-0.261591	-0.0986494	0.960124
0.522256	0.453672	0.266528	-0.280136	-0.126081	0.951644
0.50931	0.467218	0.254685	-0.307294	-0.145701	0.940394
0.559993	0.369598	0.239309	-0.348435	-0.0517682	0.935902
0.565869	0.414517	0.232805	-0.202989	-0.163492	0.965436
0.554493	0.425682	0.234277	-0.21631	-0.0703823	0.973785
0.485585	0.500649	0.204295	-0.29164	-0.15218	0.944345
0.51957	0.572519	0.180836	-0.0917859	0.237918	0.966939
0.582642	0.547556	0.199474	0.194469	0.183949	0.963506
0.503477	0.565654	0.216678	-0.219978	0.0907584	0.971274
0.522431	0.522323	0.189251	-0.209504	-0.185812	0.959991
0.477822	0.564389	0.215784	-0.201873	-0.0172636	0.97926
0.454725	0.615739	0.224618	-0.148053	0.0918767	0.984703
0.473556	0.587015	0.227261	-0.16662	0.127695	0.977718
0.578892	0.651394	0.230491	0.219351	0.492506	0.842213
0.471092	0.561041	0.243564	-0.225168	-0.00709114	0.974294
0.494536	0.619717	0.250778	-0.0163761	0.276105	0.960988
0.572999	0.613168	0.20121	0.302083	0.555685	0.774571
0.578435	0.595404	0.258497	0.138516	0.40341	0.904474
0.712513	0.431664	0.227231	0.307787	0.12545	0.943149
0.709389	0.489238	0.254168	0.299066	0.222728	0.927875
0.608937	0.49109	0.247446	-0.0318691	0.105095	0.993951
0.704726	0.598485	0.0803309	0.560301	0.472261	0.680465
0.584402	0.600969	0.189413	0.296257	0.495148	0.816738
0.624063	0.589577	0.203813	0.318378	0.451169	0.833716
0.605943	0.498709	0.219107	-0.00681303	0.0481521	0.998817
0.69606	0.51122	0.195268	0.263705	0.260373	0.928798
0.629005	0.576667	0.194693	0.315045	0.452143	0.834454
0.696889	0.53109	0.174426	0.407197	0.421052	0.810497
0.645364	0.578984	0.219257	0.325171	0.432883	0.840759
0.645843	0.585102	0.190837	0.365675	0.583618	0.725033
0.622627	0.529216	0.219458	0.157427	0.207039	0.965584
0.632391	0.606882	0.158856	0.46477	0.633827	0.618265
0.675244	0.605561	0.110039	0.587811	0.548086	0.595046
0.613059	0.583465	0.172658	0.365186	0.579461	0.728604
0.655679	0.60483	0.155482	0.506564	0.625199	0.593733
0.669323	0.581515	0.200177	0.318266	0.446825	0.836095
0.702946	0.594259	0.122884	0.566632	0.468402	0.677885
0.646593	0.582453	0.188447	0.365675	0.583618	0.725033
0.662452	0.59015	0.193969	0.371022	0.444064	0.815567
0.673691	0.573652	0.224252	0.29161	0.417878	0.860431
0.650534	0.630305	0.215177	0.315947	0.481171	0.817711
0.711006	0.518056	0.225783	0.2731	0.278018	0.920936
0.626197	0.524529	0.243961	0.12772	0.213889	0.968473
0.662553	0.575189	0.245926	0.23303	0.345352	0.909081
0.622725	0.608439	0.228116	0.283543	0.455912	0.843652
0.710565	0.533323	0.230944	0.263064	0.293227	0.919138
0.613352	0.631114	0.213765	0.30095	0.482637	0.82249
0.64981	0.521825	0.247357	0.0969511	0.223337	0.969908
0.701857	0.515792	0.228424	0.240322	0.258186	0.935727
0.601339	0.55736	0.223599	0.309031	0.29291	0.904823
0.694632	0.510422	0.228094	0.240322	0.258186	0.935727
0.667423	0.506031	0.227318	0.107041	0.212875	0.971198
0.700082	0.510462	0.275287	0.263705	0.247565	0.932294
0.641111	0.625513	0.225758	0.282619	0.427905	0.858501
0.586844	0.147356	0.261507	-0.528212	-0.0504687	0.847611
0.682301	0.19164	0.192206	-0.244152	0.0319947	0.969209
0.686952	0.119784	0.212787	-0.303636	-0.0278299	0.952382
0.670194	0.208164	0.214891	-0.246098	-0.0180335	0.969077
0.698476	0.109639	0.210535	-0.214553	0.00144872	0.976711
0.687939	0.156092	0.219259	-0.215177	0.0251876	0.97625
0.694967	0.105304	0.203515	-0.269744	-0.0220224	0.96268
0.653055	0.140764	0.238705	-0.383412	-0.00772425	0.923545
0.707692	0.195919	0.257385	-0.0958318	0.0466215	0.994305
0.709453	0.212834	0.274239	-0.108197	0.0489279	0.992925
0.682076	0.0954685	0.228458	-0.301404	-0.0237421	0.953201
0.675469	0.146536	0.263999	-0.336741	0.0107337	0.941536
0.643818	0.20263	0.257012	-0.309272	-0.0104192	0.950917
0.715445	0.206549	0.233018	-0.0966189	0.0486923	0.99413
0.635199	0.220975	0.251667	-0.31284	-0.104173	0.944076
0.677666	0.0954354	0.228	-0.301404	-0.0237421	0.953201
0.666306	0.183172	0.25515	-0.274373	0.026059	0.96127
0.673698	0.211169	0.258628	-0.22161	0.0557165	0.973542
0.664387	0.120155	0.297882	-0.199316	0.0165378	0.979796
0.647693	0.0963218	0.242065	-0.380116	-0.0193538	0.924736
0.609073	0.102898	0.253952	-0.436789	-0.162421	0.884779
0.701796	0.309944	0.195736	0.115193	0.15185	0.981668
0.628859	0.253744	0.207761	-0.420073	-0.274857	0.864865
0.622872	0.347499	0.211441	-0.164061	0.29148	0.942403
0.658561	0.225908	0.213696	-0.283225	-0.131259	0.950029
0.716734	0.237485	0.219534	-0.143697	0.0343228	0.989026
0.641868	0.270603	0.213507	-0.371503	-0.332542	0.866834
0.638677	0.333699	0.254752	-0.061741	0.185377	0.980726
0.663558	0.253993	0.268227	-0.135321	-0.0185383	0.990628
0.703377	0.350975	0.25205	0.139687	0.153062	0.978294
0.693882	0.29784	0.250145	0.0768011	0.0733622	0.994344
0.630466	0.312094	0.282695	-0.362766	-0.0988407	0.926624
0.656377	0.291768	0.225325	0.032448	-0.10204	0.994251
0.71892	0.227606	0.23786	-0.0418754	0.0228916	0.998861
0.597127	0.32396	0.237518	-0.431554	0.112952	0.894988
0.69788	0.284452	0.254092	0.0772642	0.071169	0.994467
0.673124	0.298866	0.257637	0.131094	0.0532123	0.989941
0.609174	0.295745	0.282674	-0.287685	-0.323222	0.901535
0.619511	0.347776	0.237201	-0.184735	0.283895	0.940891
0.708682	0.319249	0.245655	0.116377	0.141465	0.983079
0.615791	0.319944	0.281508	-0.412162	-0.0429519	0.910098
0.658136	0.35166	0.232404	0.00457304	0.114736	0.993386
0.70141	0.294303	0.24993	0.0768011	0.0733622	0.994344
0.594596	0.34261	0.226053	-0.403028	0.127228	0.906301
0.713182	0.282523	0.258664	0.0915234	0.0850153	0.992167
0.626496	0.31622	0.221794	-0.358433	0.00315321	0.93355
0.722147	0.31509	0.264235	0.160946	0.143183	0.976522
0.60688	0.366781	0.274366	-0.221608	0.212265	0.951753
0.563201	0.435612	0.215237	-0.201337	-0.0475821	0.978366
0.573975	0.445297	0.256353	-0.127755	0.0449421	0.990787
0.557179	0.453137	0.252911	-0.256564	-0.0953339	0.961814
0.576519	0.428784	0.251636	-0.154172	-0.0146757	0.987935
0.510822	0.560034	0.224808	-0.394723	0.100402	0.913298
0.497137	0.530636	0.221409	-0.329409	-0.0993189	0.938949
0.530276	0.54887	0.291863	-0.067266	0.0189581	0.997555
0.528404	0.5342	0.273633	-0.212262	-0.0948266	0.972601
0.54471	0.59106	0.279243	0.121861	0.382075	0.916061
0.670672	0.383852	0.205225	0.0771253	0.103511	0.991634
0.668373	0.472139	0.205644	0.0708725	0.135302	0.988266
0.600723	0.401609	0.199473	-0.244815	0.00437742	0.96956
0.703694	0.397796	0.199656	0.220719	0.104562	0.969716
0.693754	0.452696	0.207757	0.108171	0.109389	0.988096
0.624981	0.472197	0.196107	-0.0323167	0.106915	0.993743
0.708786	0.407452	0.213681	0.220061	0.106007	0.969709
0.689177	0.43289	0.175862	0.0733765	0.0753199	0.994456
0.65153	0.492602	0.208861	0.0728761	0.155395	0.985161
0.590373	0.403928	0.273424	-0.217634	0.0359351	0.975369
0.700532	0.460484	0.216974	0.146942	0.132597	0.980217
0.629896	0.362233	0.21518	-0.0389156	0.114543	0.992656
0.660299	0.372761	0.216048	0.0820289	0.130408	0.988061
0.668128	0.457772	0.215899	0.0712951	0.117038	0.990565
0.691504	0.445503	0.248848	0.104193	0.0939117	0.990113
0.626336	0.423528	0.234061	-0.049986	0.0965134	0.994076
0.614782	0.386428	0.244384	-0.106913	0.115096	0.987584
0.655641	0.390436	0.253019	0.0110807	0.147417	0.989012
0.612162	0.398864	0.225334	-0.0910879	0.094	0.991396
0.634762	0.409618	0.240484	-0.0425046	0.12953	0.990664
0.637224	0.436581	0.249414	-0.034108	0.0822713	0.996026
0.647919	0.364117	0.227428	-0.0110682	0.104509	0.994462
0.653244	0.427804	0.233824	0.0406083	0.0804244	0.995933
0.694306	0.463621	0.229627	0.146942	0.132597	0.980217
0.62496	0.426916	0.23635	-0.0496859	0.0916348	0.994552
0.620403	0.363163	0.226336	-0.149672	0.106201	0.983016
0.274006	0.676807	-0.211111	-0.307876	-0.132387	-0.942171
0.21515	0.656269	-0.207584	-0.380016	-0.118839	-0.917314
0.263046	0.66529	-0.177653	-0.414959	-0.182109	-0.891429
0.272451	0.642826	-0.194036	-0.353266	-0.289642	-0.889556
0.253465	0.636291	-0.209953	-0.421988	-0.274785	-0.863955
0.24508	0.659777	-0.25617	-0.244446	-0.0797242	-0.96638
0.301161	0.680994	-0.235896	-0.0932332	-0.0633657	-0.993626
0.261838	0.715857	-0.21033	-0.187691	0.163901	-0.968457
0.294462	0.63716	-0.264332	-0.033429	-0.00931207	-0.999398
0.319827	0.667917	-0.212194	-0.0754628	-0.0700835	-0.994683
0.273702	0.65477	-0.19108	-0.303749	-0.180177	-0.93556
0.299132	0.657604	-0.171323	-0.059152	-0.330857	-0.941825
0.261925	0.715294	-0.148104	-0.175996	0.12921	-0.975874
0.31216	0.649873	-0.165296	-0.12036	-0.218314	-0.968428
0.279344	0.676854	-0.160304	-0.173581	0.16005	-0.971727
0.279915	0.658272	-0.157345	-0.301611	-0.158968	-0.940085
0.342027	0.729315	-0.250767	-0.0165985	0.288814	-0.957241
0.313495	0.781237	-0.210229	0.0193275	0.459943	-0.887738
0.23576	0.702115	-0.194009	-0.182111	0.103353	-0.977831
0.245201	0.699886	-0.162756	-0.207939	0.0851951	-0.974425
0.263458	0.754355	-0.190554	-0.143989	0.359782	-0.921859
0.236829	0.621236	-0.161327	-0.431972	-0.359507	-0.827137
0.20013	0.733237	-0.187789	-0.147418	0.0750884	-0.98622
0.209567	0.653335	-0.107073	-0.33745	-0.399033	-0.852585
0.230749	0.649665	-0.119047	-0.378308	-0.370018	-0.84851
0.228392	0.742882	-0.158471	-0.110883	0.204211	-0.972627
0.238574	0.684234	-0.167328	-0.331635	-0.116503	-0.936187
0.219977	0.678632	-0.159956	-0.369508	-0.183996	-0.910829
0.193828	0.708921	-0.167657	-0.204542	-0.0436832	-0.977883
0.231675	0.696705	-0.158585	-0.314614	-0.0811797	-0.945742
0.258501	0.768579	-0.182428	-0.117757	0.379693	-0.917587
0.283374	0.771474	-0.180121	-0.041851	0.439636	-0.897201
0.201917	0.799708	-0.182338	0.001378	0.386993	-0.922081
0.248932	0.75949	-0.183766	-0.101974	0.357066	-0.928496
0.201465	0.776729	-0.184886	-0.0375676	0.317991	-0.947349
0.264642	0.792005	-0.176578	-0.0547265	0.510058	-0.858397
0.26384	0.855004	-0.0789536	0.117407	0.876746	-0.466403
0.213136	0.84406	-0.134706	0.0983642	0.745195	-0.659552
0.249244	0.811207	-0.162049	-0.0106991	0.520145	-0.854011
0.266414	0.834557	-0.046514	0.148099	0.95916	-0.240996
0.246808	0.795501	-0.0971684	0.0650682	0.748767	-0.659631
0.203032	0.848492	-0.046862	0.132766	0.911323	-0.389697
0.210181	0.8024	-0.106893	0.0734842	0.746332	-0.661505
0.324595	0.855934	-0.0836562	0.16006	0.926334	-0.341009
0.307985	0.823641	-0.0924126	0.0946515	0.830222	-0.549339
0.218011	0.873322	-0.0768754	0.134303	0.877391	-0.460594
0.270811	0.805276	-0.159763	0.0330924	0.586699	-0.809129
0.232237	0.813797	-0.141226	0.0127804	0.614208	-0.789041
0.202488	0.881929	-0.0472356	0.147574	0.932114	-0.330735
0.246841	0.879204	-0.107546	0.128875	0.866805	-0.481705
0.210497	0.832576	-0.161397	0.0399258	0.593863	-0.803575
0.244605	0.800289	-0.150775	-0.0106991	0.520145	-0.854011
0.229923	0.861969	-0.109366	0.111702	0.820878	-0.560073
0.285593	0.788926	-0.139425	0.035621	0.609986	-0.791611
0.204888	0.876346	-0.0857295	0.125199	0.876495	-0.464847
0.306819	0.806399	-0.0978066	0.0841893	0.766588	-0.636596
0.237231	0.798136	-0.130506	0.021656	0.599922	-0.799766
0.199883	0.857762	-0.102187	0.0911549	0.798032	-0.595681
0.314942	0.856498	-0.0942929	0.146032	0.906534	-0.396069
0.251029	0.907916	-0.0916602	0.163737	0.857161	-0.48833
0.222228	0.888516	-0.0917299	0.154128	0.860535	-0.485515
0.325914	0.888472	-0.0547539	0.163053	0.956451	-0.242106
0.325542	0.851303	-0.152556	0.10256	0.761666	-0.639801
0.36014	0.620879	-0.212758	-0.104604	-0.111001	-0.9883
0.36073	0.702748	-0.2125	0.108746	0.203956	-0.972921
0.414388	0.65772	-0.217501	0.00693618	0.129623	-0.991539
0.419075	0.630716	-0.235677	-0.0410227	0.0751027	-0.996332
0.386094	0.67591	-0.2087	0.0946295	0.132852	-0.986608
0.349097	0.677534	-0.185419	0.0567636	0.0843957	-0.994814
0.442638	0.685232	-0.211527	0.0755268	0.243037	-0.967072
0.349209	0.732511	-0.189973	0.185503	0.393666	-0.900342
0.385688	0.681747	-0.197145	0.105216	0.15959	-0.98156
0.368588	0.664003	-0.224482	0.0449227	0.0656278	-0.996832
0.450878	0.691329	-0.185266	0.0930594	0.372047	-0.923537
0.416904	0.663839	-0.18107	0.0724129	0.244222	-0.967012
0.379014	0.666916	-0.216773	0.0697535	0.0783501	-0.994483
0.405318	0.693724	-0.204679	0.10938	0.22735	-0.967651
0.371649	0.634051	-0.191833	-0.0526283	-0.0448772	-0.997605
0.366971	0.659727	-0.230688	0.0449227	0.0656278	-0.996832
0.363487	0.659652	-0.211873	0.0478767	0.0438668	-0.99789
0.330054	0.651021	-0.202291	-0.0546599	-0.111269	-0.992286
0.358307	0.704834	-0.210259	0.108746	0.203956	-0.972921
0.428761	0.689163	-0.180268	0.0808513	0.35969	-0.929562
0.401784	0.678113	-0.171187	0.133971	0.281312	-0.950219
0.363014	0.681655	-0.175086	0.119196	0.171025	-0.97803
0.340158	0.679083	-0.169536	-0.0337627	0.0714093	-0.996876
0.382676	0.696394	-0.172647	0.155654	0.297422	-0.941972
0.34254	0.754878	-0.221257	0.0585053	0.377457	-0.924177
0.402059	0.68921	-0.163771	0.151302	0.322831	-0.934285
0.377396	0.753648	-0.18813	0.213535	0.466805	-0.858193
0.430955	0.750809	-0.178705	0.229007	0.508131	-0.830276
0.417926	0.729495	-0.170564	0.16513	0.447138	-0.87909
0.416598	0.705726	-0.15509	0.133366	0.424107	-0.895738
0.428301	0.725449	-0.143415	0.214901	0.492025	-0.84364
0.396322	0.710143	-0.146486	0.182121	0.422306	-0.887969
0.422222	0.749523	-0.139263	0.34749	0.563127	-0.749759
0.418519	0.777685	-0.176659	0.314469	0.592967	-0.741282
0.400436	0.77454	-0.164346	0.298919	0.581668	-0.756512
0.367429	0.793839	-0.1199	0.264096	0.714822	-0.64752
0.428958	0.802896	-0.151389	0.373728	0.676087	-0.635007
0.390656	0.79857	-0.134716	0.297929	0.699683	-0.64937
0.432609	0.854285	-0.119775	0.340747	0.765933	-0.545195
0.339943	0.834212	-0.104216	0.219287	0.827667	-0.516604
0.345605	0.842885	-0.09276	0.219344	0.847685	-0.48303
0.352543	0.775993	-0.122993	0.218037	0.684388	-0.695753
0.375432	0.8624	-0.0519715	0.282266	0.928309	-0.242007
0.35215	0.817683	-0.143927	0.239996	0.723496	-0.647268
0.42004	0.818454	-0.127845	0.353394	0.719371	-0.598012
0.366174	0.821362	-0.063954	0.290771	0.916139	-0.275937
0.432778	0.757791	-0.130045	0.341627	0.595669	-0.726959
0.401829	0.860078	-0.121369	0.348765	0.822785	-0.448763
0.352262	0.884667	-0.0795847	0.156521	0.936328	-0.314311
0.373887	0.787416	-0.173192	0.259233	0.57165	-0.778469
0.354207	0.794311	-0.146424	0.217361	0.674631	-0.705427
0.408661	0.823476	-0.0941724	0.341418	0.825447	-0.449523
0.348896	0.831398	-0.119568	0.218298	0.779286	-0.587417
0.328758	0.878666	-0.108609	0.212112	0.875219	-0.434743
0.345552	0.77397	-0.152085	0.150328	0.597286	-0.787814
0.439941	0.825121	-0.0756077	0.403713	0.8292	-0.386579
0.437	0.829393	-0.0799926	0.396496	0.816015	-0.420608
0.387325	0.84092	-0.0941577	0.324239	0.827191	-0.458937
0.411285	0.816672	-0.0526915	0.378134	0.881188	-0.283765
0.328295	0.761742	-0.143014	0.0763731	0.583335	-0.808633
0.343578	0.823664	-0.0986535	0.231918	0.815591	-0.530118
0.372919	0.872038	-0.109899	0.274352	0.871744	-0.405948
0.350415	0.765536	-0.162873	0.174751	0.548384	-0.817763
0.351905	0.869196	-0.107642	0.223315	0.881904	-0.415182
0.407287	0.841409	-0.0965247	0.342878	0.824765	-0.449663
0.369748	0.812447	-0.144361	0.264096	0.714822	-0.64752
0.375713	0.776087	-0.159171	0.270926	0.585203	-0.764288
0.344235	0.796186	-0.157602	0.145794	0.645214	-0.749962
0.405409	0.771323	-0.105326	0.334762	0.659692	-0.67286
0.457755	0.828554	-0.129077	0.38203	0.710271	-0.591243
0.461766	0.804109	-0.0812703	0.368345	0.835691	-0.40736
0.320072	0.631526	0.130715	-0.211026	-0.246193	0.945969
0.187435	0.653759	0.178615	-0.314998	-0.1917	0.929531
0.185541	0.617226	0.172036	-0.365281	-0.372122	0.853285
0.191419	0.659167	0.184254	-0.343152	-0.182511	0.921377
0.192634	0.702463	0.180559	-0.274627	-0.135413	0.951968
0.265847	0.698946	0.182976	-0.104886	-0.0378947	0.993762
0.193784	0.648839	0.158217	-0.330752	-0.274586	0.902888
0.265517	0.708536	0.200641	-0.0570298	0.0531524	0.996957
0.204368	0.744293	0.175037	-0.283889	0.00864262	0.958818
0.282339	0.638291	0.143374	-0.254715	-0.250625	0.933974
0.317287	0.698044	0.210788	0.0647228	0.136787	0.988484
0.263191	0.623964	0.167036	-0.279913	-0.302639	0.911075
0.229037	0.651349	0.204506	-0.282562	-0.204639	0.937167
0.220088	0.654694	0.171222	-0.340545	-0.193158	0.920173
0.314118	0.639994	0.210503	-0.108716	-0.096867	0.989342
0.263391	0.683029	0.149435	-0.145615	-0.100248	0.984249
0.323086	0.73058	0.200034	0.113102	0.271187	0.955858
0.257309	0.633034	0.183809	-0.265943	-0.246913	0.931831
0.221838	0.748295	0.187565	-0.203036	0.111403	0.972813
0.2362	0.674007	0.185117	-0.271366	-0.145962	0.951344
0.264086	0.721986	0.209534	-0.0482619	0.0841588	0.995283
0.219875	0.744039	0.180977	-0.219678	0.0671518	0.973259
0.308347	0.644031	0.179675	-0.145199	-0.0987234	0.984465
0.237376	0.673859	0.165255	-0.280261	-0.150175	0.948104
0.3153	0.658189	0.185546	-0.0954077	-0.0783669	0.992349
0.20538	0.633645	0.146933	-0.354763	-0.341608	0.870314
0.19566	0.742558	0.197902	-0.250329	-0.0671406	0.96583
0.214077	0.661682	0.115029	-0.349195	-0.303137	0.886662
0.23395	0.744259	0.153484	-0.277843	-0.0892289	0.956474
0.295223	0.674534	0.166899	-0.131607	-0.090754	0.987139
0.250793	0.701044	0.154915	-0.165332	-0.0649586	0.984096
0.310161	0.701374	0.145105	0.0952829	0.157168	0.982965
0.220737	0.715869	0.176233	-0.316193	-0.110042	0.942291
0.304592	0.693205	0.202006	0.0121254	0.0543246	0.99845
0.220755	0.632935	0.211281	-0.290021	-0.254047	0.922685
0.265742	0.713514	0.199591	-0.0447505	0.0783629	0.99592
0.252398	0.647895	0.152668	-0.284971	-0.254573	0.924113
0.269505	0.699256	0.193869	-0.102418	-0.0440184	0.993767
0.246932	0.706238	0.222129	-0.101326	0.01587	0.994727
0.267355	0.63005	0.227417	-0.190063	-0.170074	0.966929
0.305585	0.73668	0.238189	0.0804722	0.227239	0.970508
0.269114	0.662498	0.237845	-0.145611	-0.1136	0.982798
0.219832	0.747923	0.2154	-0.102087	0.22389	0.969253
0.275657	0.760442	0.22601	0.0244967	0.255513	0.966495
0.303646	0.830431	0.00149296	0.201106	0.974971	-0.094803
0.310038	0.853767	0.0844727	0.277816	0.855424	0.437114
0.261298	0.856752	0.0773841	0.110769	0.948214	0.297692
0.269526	0.853654	0.0758024	0.113133	0.946804	0.301269
0.274126	0.835667	0.00423977	0.205041	0.973739	-0.0989484
0.274126	0.835667	0.00423977	0.205041	0.973739	-0.0989484
0.259478	0.851674	0.040934	0.256004	0.964362	0.0668471
0.29084	0.820747	0.00447418	0.205041	0.973739	-0.0989484
0.262678	0.875926	0.0394387	0.245377	0.965741	0.0844688
0.245509	0.870115	-0.0367234	0.191352	0.941168	-0.278546
0.326834	0.883397	0.0893857	0.294058	0.910641	0.290279
0.236516	0.893424	-0.0448391	0.16871	0.942589	-0.288206
0.29749	0.887141	0.0704919	0.226159	0.952932	0.201921
0.28932	0.887052	0.0361434	0.254354	0.965259	0.059832
0.312177	0.86734	0.0951573	0.259946	0.877634	0.402723
0.306049	0.859604	0.0881393	0.238845	0.891495	0.384953
0.305537	0.905082	-0.0112201	0.200018	0.973713	-0.108979
0.273337	0.899415	-0.00222602	0.224078	0.968323	-0.11018
0.266184	0.903173	0.00330896	0.224078	0.968323	-0.11018
0.196375	0.883607	0.0897477	0.106038	0.923864	0.367738
0.23555	0.896562	0.0241537	0.238736	0.969142	-0.0613981
0.225364	0.925149	0.0502715	0.162687	0.975904	0.145409
0.218102	0.914443	-0.0248321	0.182955	0.960059	-0.211692
0.260849	0.917027	0.0393032	0.21448	0.973789	0.075721
0.22819	0.917776	0.00495432	0.222213	0.966495	-0.128489
0.287595	0.849457	0.0837221	0.214838	0.893731	0.393813
0.222112	0.831369	0.13023	0.0186611	0.607116	0.794394
0.206426	0.802445	0.165146	-0.0486526	0.366428	0.929174
0.316394	0.789139	0.171382	0.2086	0.490116	0.846328
0.209459	0.816704	0.166414	-0.00410503	0.415621	0.909528
0.318181	0.791108	0.204623	0.122699	0.392456	0.91155
0.27168	0.805847	0.141131	0.14873	0.56693	0.810228
0.253768	0.876354	0.138495	0.153565	0.75043	0.642863
0.23926	0.856039	0.102856	0.0550418	0.791482	0.60871
0.222136	0.85931	0.1296	0.0361177	0.718405	0.694687
0.218762	0.823259	0.136933	0.0186166	0.577725	0.816019
0.311744	0.857106	0.0982654	0.286619	0.825847	0.48562
0.280345	0.832277	0.141756	0.197563	0.666679	0.718685
0.232574	0.871886	0.0996486	0.0385705	0.899154	0.435929
0.245323	0.882504	0.167334	0.158386	0.729881	0.664972
0.246348	0.7922	0.115294	0.0279969	0.491937	0.870181
0.221563	0.770063	0.197256	-0.102816	0.246353	0.963711
0.233972	0.84604	0.159028	0.0162061	0.608548	0.793352
0.198144	0.799362	0.138627	-0.0125474	0.40683	0.913418
0.230863	0.87834	0.113017	0.0468488	0.78932	0.612192
0.291239	0.793838	0.147988	0.187304	0.55626	0.809625
0.339818	0.802577	0.187913	0.207993	0.459175	0.863653
0.292158	0.907619	0.111358	0.204825	0.768291	0.606445
0.292158	0.907619	0.111358	0.204825	0.768291	0.606445
0.313182	0.786999	0.111852	0.295512	0.620347	0.726528
0.401345	0.615668	0.143946	-0.145131	0.109019	0.983388
0.458206	0.619292	0.177841	-0.188991	0.118149	0.974845
0.328305	0.699797	0.17907	0.0928997	0.159474	0.982821
0.36116	0.739315	0.210293	0.18054	0.315677	0.931533
0.43602	0.629424	0.155678	-0.195026	0.168207	0.966267
0.402983	0.670044	0.215067	-0.0119391	0.267714	0.963424
0.404393	0.66019	0.209344	-0.0153299	0.263923	0.964422
0.333756	0.624085	0.189042	-0.16479	-0.153352	0.974334
0.412642	0.720746	0.193807	0.182045	0.323027	0.928716
0.350926	0.733122	0.137418	0.219807	0.383877	0.896841
0.361487	0.655998	0.188202	-0.0237624	0.14453	0.989215
0.406649	0.709664	0.164256	0.230315	0.368654	0.900583
0.362348	0.690944	0.197445	0.068993	0.213712	0.974457
0.371286	0.692374	0.135159	0.170667	0.313484	0.934131
0.444379	0.703671	0.137018	0.0652731	0.59954	0.797679
0.419921	0.667991	0.218218	-0.0298691	0.261053	0.964862
0.411044	0.682158	0.175122	0.148864	0.318086	0.936302
0.385792	0.750122	0.194049	0.217834	0.369459	0.903354
0.377794	0.632415	0.170613	-0.176583	0.0516158	0.982931
0.338761	0.651866	0.197319	-0.092047	-0.0226683	0.995497
0.384012	0.757455	0.184084	0.224913	0.39463	0.890888
0.328088	0.629692	0.220964	-0.136779	-0.12003	0.983303
0.374293	0.646651	0.247771	-0.131621	0.104867	0.985738
0.350948	0.755265	0.168216	0.220274	0.388057	0.894925
0.359451	0.832806	-0.0422817	0.285954	0.932541	-0.220449
0.359821	0.858746	-0.0241468	0.232414	0.960672	-0.151967
0.360227	0.835688	0.0590527	0.335666	0.889777	0.309233
0.360171	0.843161	-0.0226611	0.27913	0.951556	-0.128949
0.389441	0.843714	0.0130728	0.302097	0.953235	0.00890716
0.3611	0.874516	0.0586552	0.323588	0.920182	0.220354
0.335836	0.869458	0.0242432	0.23828	0.97093	0.0227384
0.352	0.876263	-0.0236754	0.225129	0.962678	-0.150224
0.386089	0.863514	0.0838452	0.33964	0.875169	0.344563
0.441951	0.853745	0.0140675	0.210139	0.975927	0.0583733
0.375172	0.829996	0.0579859	0.320692	0.898098	0.300959
0.418465	0.803219	0.0599498	0.335319	0.860055	0.384535
0.435045	0.82208	0.0817129	0.341491	0.831865	0.437475
0.402514	0.835264	-0.0365654	0.351393	0.91526	-0.197035
0.416573	0.842766	0.018095	0.360988	0.928427	0.087812
0.3668	0.860527	0.0546633	0.321572	0.92125	0.218836
0.353863	0.853597	0.0127181	0.256969	0.96633	0.0131342
0.411904	0.79416	0.00980716	0.261102	0.965305	0.0034121
0.428848	0.860392	0.0401051	0.361707	0.911469	0.195942
0.427616	0.829082	-0.0361516	0.374946	0.904746	-0.202117
0.440538	0.833005	-0.00137968	0.362224	0.925835	-0.107811
0.401526	0.863615	0.0522924	0.322031	0.906477	0.273121
0.360367	0.847093	-0.00604535	0.260651	0.962951	-0.0691858
0.357566	0.837536	0.0214852	0.276663	0.96043	0.0321201
0.401688	0.874275	0.08958	0.360868	0.853146	0.376718
0.352661	0.891909	0.0267829	0.248603	0.967927	0.0362455
0.376005	0.89814	-0.0167523	0.226909	0.964867	-0.132453
0.417761	0.846895	0.103332	0.325157	0.820116	0.470831
0.418733	0.892736	0.0685824	0.322013	0.918438	0.229737
0.450015	0.747545	0.0755246	0.264119	0.661292	0.702093
0.376974	0.824842	0.0967787	0.332001	0.767598	0.548241
0.37826	0.766737	0.147454	0.332839	0.4915	0.804765
0.333776	0.833802	0.122008	0.318575	0.695476	0.644068
0.350692	0.783975	0.152732	0.280987	0.525387	0.803128
0.326219	0.813553	0.115018	0.296315	0.667419	0.683191
0.341304	0.816934	0.16388	0.276036	0.56005	0.78112
0.366138	0.765305	0.16561	0.292295	0.47954	0.827409
0.38912	0.789719	0.143137	0.296432	0.577962	0.760321
0.336477	0.844132	0.0888129	0.360792	0.778883	0.513002
0.33655	0.777229	0.185668	0.201212	0.396936	0.895519
0.364405	0.778602	0.103546	0.309867	0.57928	0.753935
0.389302	0.780553	0.111105	0.309081	0.664671	0.680207
0.378247	0.827397	0.106833	0.332001	0.767598	0.548241
0.381808	0.824614	0.136001	0.338164	0.708453	0.619467
0.334635	0.799048	0.150064	0.276036	0.56005	0.78112
0.398558	0.818478	0.13538	0.29833	0.700085	0.648753
0.453584	0.791509	0.155799	0.277671	0.62907	0.726065
0.204406	0.905413	0.00978581	0.184863	0.971707	-0.147009
0.471253	0.654966	-0.176398	0.0584636	0.273665	-0.960047
0.510567	0.644626	-0.207027	0.072071	0.306886	-0.949014
0.535594	0.658163	-0.208274	0.176092	0.399882	-0.899492
0.534759	0.640095	-0.166813	0.232328	0.436268	-0.869307
0.517329	0.651143	-0.166644	0.155842	0.398311	-0.903915
0.548861	0.631584	-0.175794	0.202663	0.382078	-0.901634
0.463066	0.661959	-0.160723	0.066984	0.269095	-0.960782
0.494865	0.688912	-0.188726	0.126303	0.397418	-0.908904
0.57466	0.652295	-0.174231	0.258652	0.453856	-0.852709
0.508125	0.687134	-0.200209	0.155823	0.423939	-0.892186
0.460505	0.703153	-0.200391	0.0962057	0.391083	-0.915313
0.512402	0.720474	-0.189142	0.22903	0.429273	-0.873653
0.582261	0.678065	-0.179662	0.301348	0.511774	-0.804535
0.550524	0.715303	-0.194267	0.289454	0.514783	-0.806979
0.550741	0.724546	-0.170973	0.359657	0.473213	-0.804187
0.571549	0.740258	-0.171869	0.35869	0.573952	-0.736152
0.518525	0.746069	-0.144081	0.421203	0.563663	-0.710544
0.580681	0.699702	-0.146308	0.443728	0.608122	-0.65825
0.567048	0.716128	-0.0520811	0.506501	0.813809	-0.284906
0.584005	0.731365	-0.164196	0.408647	0.596373	-0.690903
0.561075	0.727165	-0.108884	0.474866	0.724841	-0.499108
0.585293	0.703725	-0.154949	0.374516	0.597477	-0.709055
0.496476	0.711277	-0.170762	0.183792	0.380468	-0.906347
0.518072	0.681198	-0.152377	0.195099	0.445132	-0.873953
0.564329	0.701215	-0.146832	0.390709	0.579676	-0.715068
0.571745	0.750111	-0.0542576	0.510773	0.817583	-0.265837
0.503323	0.768022	-0.153187	0.507377	0.5589	-0.655896
0.54658	0.790115	-0.0930619	0.457857	0.842913	-0.282605
0.509106	0.770882	-0.152347	0.507377	0.5589	-0.655896
0.487748	0.756554	-0.05246	0.377456	0.898032	-0.225974
0.520047	0.756834	-0.125089	0.507229	0.716007	-0.479639
0.613877	0.641947	-0.185146	0.346299	0.468771	-0.812607
0.606313	0.612237	-0.132027	0.413399	0.496683	-0.763156
0.617497	0.663873	-0.185377	0.342816	0.480871	-0.806995
0.600822	0.676359	-0.18447	0.343505	0.524705	-0.778903
0.588427	0.698565	-0.124788	0.478007	0.631452	-0.610556
0.679415	0.724094	-0.0854559	0.634698	0.734632	-0.239736
0.611952	0.729682	-0.127909	0.461106	0.747962	-0.477425
0.63528	0.655134	-0.162153	0.47258	0.58514	-0.658998
0.68711	0.687989	-0.0854599	0.618715	0.733382	-0.281678
0.65712	0.675218	-0.114354	0.559016	0.652821	-0.5112
0.623151	0.698467	-0.0500702	0.604392	0.763912	-0.226159
0.666815	0.68486	-0.107131	0.572781	0.700073	-0.426404
0.714088	0.687093	-0.102562	0.61262	0.715232	-0.336363
0.67508	0.623573	-0.0842161	0.574617	0.807998	-0.130208
0.674956	0.640415	-0.0747175	0.609384	0.741021	-0.282026
0.705017	0.622333	-0.0973208	0.65985	0.748721	-0.0633587
0.646366	0.626644	-0.167495	0.435064	0.486693	-0.757528
0.607212	0.735384	-0.128263	0.444159	0.752652	-0.486044
0.689453	0.673821	-0.108293	0.528403	0.80112	-0.281065
0.646547	0.674921	-0.102566	0.555947	0.689128	-0.464785
0.691438	0.634752	-0.0939324	0.539972	0.826411	-0.15961
0.591772	0.653883	-0.140342	0.366189	0.531692	-0.763681
0.711159	0.662598	-0.067812	0.607059	0.767353	-0.206514
0.667491	0.652302	-0.147667	0.403746	0.683954	-0.607615
0.64882	0.662977	-0.103774	0.575403	0.647824	-0.499235
0.712118	0.684693	-0.148689	0.413011	0.725756	-0.550182
0.644817	0.704925	-0.0674959	0.614218	0.746548	-0.255739
0.63457	0.715279	-0.0966321	0.554122	0.723445	-0.411797
0.646976	0.637019	-0.1602	0.493026	0.542142	-0.680446
0.611795	0.67635	-0.144273	0.495335	0.608631	-0.619848
0.650009	0.737331	-0.0586578	0.59488	0.777563	-0.20375
0.676395	0.695903	-0.103445	0.581169	0.710074	-0.397539
0.616589	0.70591	-0.134353	0.513052	0.626495	-0.586755
0.668388	0.636223	-0.162728	0.506433	0.525381	-0.68374
0.646551	0.671237	-0.137907	0.533354	0.610366	-0.585652
0.596791	0.689045	-0.094722	0.53015	0.718612	-0.450042
0.586831	0.755089	0.0742159	0.578688	0.71547	0.391436
0.596133	0.767037	0.085206	0.576924	0.712504	0.39937
0.574155	0.758384	0.0959839	0.525516	0.707215	0.472949
0.585633	0.763651	0.0942851	0.525516	0.707215	0.472949
0.559361	0.72689	0.0169881	0.545706	0.823256	0.156381
0.540708	0.619876	0.194791	0.190102	0.429065	0.883043
0.564524	0.617892	0.196018	0.219588	0.513443	0.829553
0.543129	0.72287	0.17909	0.3622	0.642078	0.675683
0.570533	0.689195	0.129405	0.4396	0.62144	0.648509
0.568632	0.705152	0.110649	0.467657	0.66741	0.579535
0.551295	0.677761	0.100173	0.459693	0.662172	0.591785
0.490502	0.686821	0.199387	0.367829	0.558931	0.743168
0.524832	0.725619	0.155535	0.341948	0.66709	0.661863
0.538559	0.628724	0.173799	0.240385	0.483543	0.841666
0.510455	0.712754	0.165382	0.254746	0.674363	0.693065
0.502507	0.72403	0.159725	0.240945	0.68691	0.685639
0.584306	0.734586	0.124839	0.470783	0.664002	0.580916
0.502121	0.66925	0.186791	0.28227	0.512425	0.811014
0.492963	0.752855	0.163781	0.19773	0.680042	0.706006
0.494209	0.700259	0.179808	0.232141	0.665432	0.709444
0.535788	0.646031	0.162272	0.34792	0.589042	0.72937
0.579617	0.697874	0.151102	0.432534	0.619305	0.655267
0.513785	0.656022	0.166506	0.329778	0.543564	0.771871
0.564842	0.683832	0.132903	0.434523	0.618562	0.654654
0.584053	0.735034	0.120193	0.473382	0.668853	0.573188
0.534917	0.742331	0.137611	0.361144	0.670085	0.648507
0.501222	0.676333	0.191468	0.325528	0.581983	0.745203
0.550053	0.727754	0.109794	0.435262	0.673116	0.597881
0.54374	0.68896	0.163097	0.38093	0.621418	0.68464
0.55118	0.649539	0.167069	0.344795	0.591991	0.728466
0.505857	0.738263	0.156914	0.23688	0.697587	0.67621
0.47483	0.711872	0.0956398	0.190748	0.663999	0.722994
0.523398	0.704183	0.18198	0.353892	0.632096	0.689358
0.554756	0.661902	0.186113	0.344795	0.591991	0.728466
0.485482	0.673026	0.200691	0.28227	0.512425	0.811014
0.573271	0.759327	0.134252	0.400391	0.687328	0.606027
0.517626	0.647596	0.222042	0.114589	0.313107	0.94278
0.497623	0.765617	0.132635	0.249881	0.685724	0.683624
0.531004	0.766073	-0.0470448	0.430693	0.886451	-0.169437
0.4663	0.813127	-0.0442706	0.396241	0.894811	-0.205685
0.581631	0.788961	-0.0460331	0.462362	0.881047	-0.0998917
0.550264	0.81182	0.0663815	0.472817	0.753459	0.456884
0.55213	0.764013	0.0662726	0.551342	0.729143	0.405429
0.543689	0.799439	0.0721057	0.472817	0.753459	0.456884
0.464818	0.794995	0.0781989	0.283041	0.722579	0.630688
0.509977	0.81067	-0.0254757	0.409867	0.902008	-0.13561
0.576236	0.776329	0.0129207	0.528899	0.841807	0.107832
0.524164	0.862011	0.0287098	0.380486	0.877632	0.291533
0.540866	0.774458	0.0606252	0.495664	0.783243	0.375297
0.560386	0.764634	0.0709396	0.551342	0.729143	0.405429
0.472714	0.804778	0.0752919	0.300308	0.727154	0.617302
0.535108	0.803819	0.066223	0.459899	0.760625	0.458196
0.491749	0.851742	0.0637213	0.321103	0.883853	0.340144
0.511497	0.761344	0.0103412	0.506356	0.854324	0.117196
0.505976	0.805033	0.0376758	0.558097	0.739194	0.376988
0.527229	0.812231	0.102867	0.410245	0.756132	0.509867
0.505967	0.817727	0.0915193	0.373206	0.708607	0.598827
0.578369	0.782727	0.0892055	0.523493	0.711659	0.468505
0.594392	0.777755	0.0522739	0.561798	0.799871	0.211161
0.504363	0.749802	0.0915199	0.337199	0.701068	0.628332
0.527137	0.751306	0.0823584	0.403703	0.707573	0.579969
0.480602	0.762219	0.0809584	0.309678	0.70254	0.640732
0.468645	0.806461	0.111769	0.249826	0.702786	0.666092
0.492689	0.758999	0.0960202	0.308531	0.703957	0.639728
0.557184	0.802588	0.128303	0.42771	0.715234	0.552725
0.679041	0.617142	-0.0240194	0.62254	0.761352	-0.181071
0.587647	0.72716	0.0592753	0.570763	0.743014	0.349515
0.581397	0.715341	0.0611254	0.572833	0.715634	0.399664
0.602612	0.745133	0.0143153	0.55005	0.825272	0.127947
0.696291	0.698544	0.057757	0.578703	0.759072	0.298182
0.659462	0.706259	0.0494506	0.608842	0.74676	0.267696
0.655726	0.69503	-0.0175854	0.644123	0.763133	-0.0522844
0.672164	0.740397	-0.0184162	0.613455	0.78973	0.000616517
0.679842	0.669682	0.0583479	0.585629	0.736344	0.338875
0.667241	0.675991	0.0613755	0.599564	0.714062	0.361439
0.68072	0.710028	0.0491682	0.597931	0.755599	0.267487
0.604532	0.691135	0.0474854	0.583273	0.744823	0.324086
0.594547	0.715232	0.0193952	0.569874	0.80404	0.169599
0.699987	0.720134	0.00684601	0.69377	0.711996	0.108374
0.592763	0.751761	-0.0439838	0.521702	0.845583	-0.113206
0.713225	0.674989	-0.0395283	0.644187	0.741144	-0.18902
0.636225	0.698638	0.0794256	0.550306	0.711119	0.437576
0.65334	0.688548	0.000866968	0.607323	0.788456	0.0974505
0.663195	0.654225	0.0564907	0.547165	0.715407	0.434516
0.695627	0.672253	-0.0210261	0.647775	0.737437	-0.191243
0.655372	0.710509	0.0329717	0.603647	0.762181	0.233858
0.701389	0.693664	0.00412437	0.667307	0.743023	0.0511662
0.634111	0.729865	0.0545851	0.589623	0.759457	0.274901
0.623226	0.684046	-0.00858405	0.599639	0.799111	0.043067
0.595842	0.717696	0.0215661	0.569874	0.80404	0.169599
0.69948	0.698503	-0.00761821	0.654295	0.756236	-0.00243995
0.677745	0.715234	-0.00349627	0.642833	0.765784	-0.0184594
0.651334	0.772667	-0.0443086	0.565672	0.820708	-0.0803299
0.620691	0.764651	-0.0396735	0.553607	0.829798	-0.0703871
0.652283	0.781487	0.0183948	0.576066	0.815774	0.0515771
0.615736	0.76448	-0.0350493	0.542049	0.838492	-0.0558083
0.592394	0.758188	-0.018004	0.517896	0.853895	-0.0514438
0.677757	0.700162	0.0990182	0.542245	0.709674	0.449815
0.609495	0.808185	0.0025683	0.546369	0.836498	0.0418616
0.734109	0.670227	-0.0275921	0.619628	0.759344	-0.198638
0.722367	0.632786	0.0979987	0.570284	0.615837	0.543619
0.604169	0.60285	0.159772	0.401576	0.635376	0.659571
0.709918	0.618545	0.107885	0.54024	0.555131	0.632432
0.659561	0.619189	0.0811487	0.510617	0.659785	0.55132
0.684387	0.651296	0.112601	0.574823	0.626636	0.526218
0.608212	0.668011	0.132272	0.490954	0.644647	0.585999
0.650547	0.67246	0.0911695	0.545816	0.698351	0.463023
0.612814	0.673756	0.10461	0.498432	0.689017	0.526137
0.593242	0.624173	0.168902	0.376828	0.620055	0.688137
0.651382	0.64066	0.128985	0.523909	0.629502	0.5738
0.660972	0.706082	0.139724	0.53923	0.645849	0.540473
0.671104	0.622931	0.115586	0.572762	0.58706	0.572104
0.656161	0.690954	0.118434	0.535431	0.677607	0.504146
0.633063	0.673999	0.094058	0.544257	0.705938	0.453251
0.664086	0.672119	0.14793	0.551904	0.656948	0.513635
0.694084	0.669639	0.104501	0.551716	0.689153	0.469763
0.661163	0.660906	0.13771	0.536116	0.649201	0.539553
0.598259	0.72016	0.0988549	0.535303	0.671269	0.512688
0.61313	0.666518	0.106952	0.50015	0.687182	0.526906
0.728981	0.190451	-0.273798	0.0618091	0.137733	-0.988539
0.768246	0.146674	-0.210449	0.247661	0.228833	-0.941435
0.849874	0.149796	-0.242411	0.376298	0.206255	-0.903249
0.738748	0.176088	-0.246285	0.0642748	0.144212	-0.987457
0.738748	0.176088	-0.246285	0.0642748	0.144212	-0.987457
0.793276	0.144555	-0.259396	0.239563	0.201856	-0.949665
0.768878	0.122507	-0.237967	0.121049	0.116583	-0.985777
0.739957	0.17812	-0.281598	0.0642748	0.144212	-0.987457
0.818731	0.185483	-0.241178	0.321926	0.276571	-0.905468
0.727276	0.143439	-0.251687	0.0442021	0.0841228	-0.995475
0.807454	0.193856	-0.189016	0.262562	0.274923	-0.924921
0.726628	0.214022	-0.2126	0.203891	0.293016	-0.934115
0.806664	0.0946505	-0.244713	0.290518	0.178684	-0.940038
0.804565	0.103275	-0.220342	0.289635	0.141596	-0.946606
0.824154	0.155534	-0.212539	0.324084	0.247613	-0.913048
0.841958	0.117817	-0.226893	0.371879	0.161939	-0.914047
0.840476	0.196124	-0.206522	0.341001	0.245554	-0.907426
0.758163	0.107425	-0.283138	0.0702735	0.175812	-0.981912
0.810239	0.117767	-0.236993	0.301323	0.194829	-0.933406
0.757697	0.211126	-0.269812	0.0754451	0.166677	-0.983121
0.778389	0.226825	-0.181872	0.201508	0.0753728	-0.976583
0.800418	0.304127	-0.22557	0.546145	0.527104	-0.651066
