-0.4684985410635264	-0.6793173264310381	0.006363133545244225	-0.6640175274088665	-0.6195730827350192	0.4185808386011481
0.6163574968022725	0.3994449684326044	-0.23128476199553727	0.17997877421324893	0.1647815728467881	-0.9697704233904202
-0.06733512756963533	-0.5776740407543257	0.07289320197232226	0.10467066236950634	0.9427943972516741	0.31651662981584683
0.37260460036661613	0.6028326891199998	0.20296515621542968	-0.3609747201665655	-0.2157576738865351	0.907273871308846
0.6688774677495072	0.0639047843639376	-0.25026309470915425	0.33841199128548105	0.24651766033570943	-0.908133452360832
-0.16690143406046026	0.6359617679813079	-0.11829612192614564	0.7688499955385992	-0.2280964480283845	-0.5973622809963244
-0.17108759452449074	-0.6314315514169457	-0.0721208931581753	0.633449787251406	-0.6489829548620105	-0.42138164569630143
-0.1691433321762878	-0.8310884816807501	0.0343319824035489	-0.39011694851632767	-0.83688937222623	0.38395956184876506
0.4746237475151736	0.0981810838720836	0.13918134986961966	-0.7440916987704388	-0.12508030106675616	0.6562640185976769
-0.7559088131054267	-0.03355248048453469	-0.04646191631152837	-0.29551999099391074	-0.6223416695152816	-0.7248163776487753
0.5704477178224572	0.15611926291642803	-0.2618292655155166	-0.36828475386602605	-0.2422127195599855	-0.8976075637789585
0.2798028030986739	0.5407684834751552	0.17450197687644545	-0.30647462215797955	-0.41250120236572896	0.8578555029956687
0.6937224444335783	0.060000390629007985	-0.22915591372639782	0.16422976437837672	0.08395874385342847	-0.9828425681780261
-0.7006379857131394	0.31776037783694194	-0.09167510519012034	-0.525324485708367	-0.11851430127391283	-0.8426081800628309
0.8125707347656098	-0.002765956131812821	0.2195231433034918	-0.5178535225375522	0.055642316468804714	0.8536578130688158
0.6996857721333167	-0.5278607226124332	-0.1304944347915344	0.6873273314666046	-0.3920158403192064	-0.6114774896574875
0.26114027733869183	0.3685246783617967	-0.167186039411362	-0.3634589911395067	-0.627165240849637	-0.6888841139334455
0.47394559238749245	-0.12939080374226639	-0.05940124472123817	-0.5825637448323134	0.6552928561703606	-0.48084379569569635
0.44387163653469325	0.7589832287603714	0.12272054248708583	0.3958741612302112	0.6591588707433352	0.6393694015126534
-0.1330118517231918	-0.6667891637744909	-0.14103794956811588	-0.18797132320624194	0.3842459343176549	-0.9038926062384002
0.5029398449181733	0.522623761884252	0.22553910531963506	0.2791286524909159	-0.11612768552041557	0.9532059357842233
-0.7166084290283814	-0.04935563928713585	-0.07884280704402886	0.12215553612022197	0.09998603991320329	-0.987461805244971
-0.6349102650024425	0.18296729447552765	0.0157591422271917	0.9883500950542115	-0.1521049848115664	0.0053069013373604245
-0.4094338038478331	-0.588593402721703	0.06535027102656521	-0.35117371906269834	-0.39679901525021094	0.848072850960421
-0.00931497800731911	0.6276240167793622	-0.14944368750341416	-0.9803783263444835	-0.040567986042939576	-0.19290561355857427
0.7668736761217652	-0.250095589411047	0.20750327141462502	-0.013463073914090004	-0.1286781972283301	0.9915950116851389
0.5134482857371792	0.7007513426873241	0.1277578069980608	-0.07612276244442184	0.734171827841597	0.6746829271899201
0.5005356573373986	0.6965177206954324	0.07472147637868909	0.7404276175076193	0.38724771507141165	0.5493688655211189
-0.5686967154125561	0.2894244637503742	-0.00759267843093929	0.7898379074906146	-0.5054271090606572	-0.3474183606510071
-0.02353068346608528	0.8018383847122684	0.08522319499533515	-0.36281703279875444	0.6188628793002985	0.696686828736737
-0.5173750938623036	0.435418346507336	0.09991019471919182	0.1298337897510204	-0.7438996010498079	0.6555582129733586
-0.19381516829764925	-0.66002222105593	0.13176974826716198	-0.3144252797598974	-0.20955920604634695	0.9258626694111468
0.5259228979985098	-0.23840523361638505	0.1985760621070349	-0.515667718075882	0.06912202704644652	0.8539958723034925
0.6828315743060283	-0.13013444193153512	0.19672378644614588	0.16129416402844404	0.17957223702514277	0.9704318648623156
0.7573676653630363	-0.4224869921365281	-0.17421230044095423	0.5973243889146717	-0.4586448572946024	-0.6579122048456977
-0.6685095775413185	-0.3971204236467349	-0.008021603020234896	-0.7477725185018083	-0.6128752415934711	0.2553824559659631
0.11877414117930321	-0.7243720579417036	0.15836991790383775	0.24213509093212693	-0.24984759615190386	0.9375216138502646
0.010639992133041879	-0.8414371052700808	-0.09970340064143302	-0.302677894557023	-0.5448753232953247	-0.7819827198924173
0.16038421082825208	0.5524358443738696	0.12659763000644972	-0.43377195076464986	-0.5061687669928925	0.74540933321949
-0.2038432756928756	0.5878905973682538	-0.027626625992277425	0.34668636673963377	-0.9077438617577469	0.236240649673178
0.5010694808597173	0.18842401116714433	-0.19020645669036165	-0.7403852025229896	0.6044822455541452	-0.2939914398325364
-0.27853894222508446	0.6368472413691991	0.10926616365580816	0.1407791638562581	0.6010313187367264	0.7867290390735071
0.8351869624523974	0.09652135050320661	0.21554022783342908	0.16855250363611568	0.41565550590540945	0.8937676174087512
-0.34459552121775594	0.6820972028698256	0.048453005899887144	-0.0027389258530661764	0.8335253879890966	0.5524743667020192
-0.42138099953845815	-0.5095570056036971	0.06571504979373784	0.6473984391273213	0.033902700586442125	0.7613973127799006
-0.2772204718919016	0.7284137953601525	0.10148772263099881	-0.41063794007947513	0.6256998989490439	0.663231572395677
-0.5385000592238826	-0.48729070879122394	0.07127115661757341	-0.569318862731291	-0.38988757995930007	0.7237842962732955
0.5765535388739138	0.680736022507313	-0.010597211049762016	0.6253199412232511	0.7150293613183064	-0.31258276273858226
-0.3536288686334276	0.5851296998207708	-0.06133597467932109	0.09755786777310893	-0.5101411571851923	-0.8545399125736127
-0.3574184226162625	0.5595990940622062	0.09352758430862038	0.4310328920085559	-0.36933750298370593	0.8232863747788499
0.39178622886273806	-0.6385343639232426	-0.20296026370528727	0.6537019513053567	0.016840195632351895	-0.7565647141326604
-0.651621151650713	0.27765999472984104	-0.04638979004220279	-0.7262732773473751	0.31723186435116735	-0.6098287225536246
-0.7261820598433276	0.22694929278094736	-0.03147508418388702	-0.5414600332679135	0.31242483118900055	-0.7805201837428901
-0.5797415353547296	0.26219064058648656	0.0008206015983936946	0.8779611246156919	-0.4140094882468113	-0.2403755547162894
-0.6682276435346542	0.09607138673518376	0.020820984461695287	0.11132999473946573	0.9787421634486535	0.17224810524113204
0.3862178417959031	-0.7841860237079616	-0.08054414144707271	-0.16337078406286157	-0.8256487342538845	-0.5400131058961849
0.43791220852128987	-0.7538459228372902	-0.21240819805789263	0.17699817896294218	-0.34312924110844906	-0.9224608222250645
0.1986880710510339	0.5376619488890308	-0.142800016740837	0.6679336303323928	-0.7224717086286963	-0.17860373932849985
0.42295564664619134	0.6627392871426387	-0.17174427337799184	0.20414952053855245	0.4816202144275994	-0.852270463126931
0.2887936696021537	0.6732038112779346	0.12743355414814217	0.023681886988296413	0.6723146942687906	0.7398865589392304
0.24910572628238795	-0.440568711868838	-0.0469219594228575	-0.7103274393181125	0.658903606419522	-0.24754992708365262
-0.17277189262928327	-0.5170286668341609	0.06372582239380782	0.5401385367858529	0.7894045421064838	-0.29170332528185294
-0.20868551454656412	-0.7940324046086161	0.06351732635194182	-0.23130689837288798	-0.7959121606861038	0.5594827532972689
0.5476730662396692	-0.14347596924204783	-0.2773415182792479	-0.516851382160867	-0.0889350555402203	-0.8514430131573443
-0.7151258017672308	0.04067814635202477	0.05289987497975184	-0.8067568635106289	-0.05293700630236805	0.5885074651542107
-0.2011374795601577	0.7360932423444964	-0.13080763534525636	-0.3738852433327148	0.5136419445001713	-0.7722575850505583
0.5234014840612096	0.2846703420849598	0.1909803412861732	-0.3331511406592425	-0.0957096136437839	0.9380031915370027
0.117770722742482	-0.806717960577642	0.0825077160374676	-0.05669293763786562	-0.8268476402800584	0.5595613376434154
0.37358766854722375	0.5344340448621627	0.20473919786217437	-0.2663487292008007	-0.2544605634420802	0.929681760661065
0.6671262779967616	-0.3890806082088233	-0.2074143352281741	0.7642423374226971	0.1604984927572896	-0.6246390025553398
0.5923401443456628	-0.6871478586961507	0.05928088483038214	0.5609860321205764	-0.7657232122361218	0.3145832703886301
0.10383301296853831	0.737601429045555	-0.164145458064311	0.25357788004731796	0.4219783274106862	-0.8704209039001695
-0.5534978833631584	-0.37440051016051884	0.040270581307388795	0.10729876275182178	-0.3593490307342766	0.9270141582641894
-0.7387227487840329	-0.23966113309835518	-0.010809996749585342	-0.8484923791820107	-0.523478130848126	0.07766163141347977
0.017385820402525017	-0.8364372575915674	0.054795018219950295	-0.21415049261105842	-0.906764493285121	0.3632047910364328
0.11569939864473912	0.5337905263982435	-0.15579790851461991	-0.5611225624504992	-0.36574108789332277	-0.7425462453851571
0.39445357156978333	-0.13655619222859738	-0.02641323562776153	-0.9471554978483725	0.24748061811338087	-0.20408284237980445
-0.5008072611384782	-0.4177118393752006	0.10358513828888208	0.20851697051056173	-0.04961028918592217	0.97675969010601
-0.5986202512311571	0.28531107385745624	0.04011295763635715	0.1703632368671661	0.5911413341307878	0.7883706555968542
0.4710741698834076	0.6735254717363889	0.07325735276620521	-0.17112979925882238	0.5851676317739332	0.7926496291109465
-0.08218959953700156	-0.7176287935648583	-0.12695673660114143	0.11455571662593401	-0.2808387264439285	-0.9528938018046242
-0.4328589225103291	-0.4259527598402952	-0.002761026688425341	0.5006502504738579	0.73379194207073	-0.45923709829730675
0.6896153971937581	0.3443204101013905	0.18694149311083963	0.7616078506089878	-0.07285724140348362	0.6439295802072093
0.4599940681771002	-0.6067887592063772	0.21871944271517352	0.2662805143852571	-0.339583679139297	0.9020962324059123
0.43447648681926726	-0.26233496453994604	0.1394220076208094	-0.7916795868502837	0.36151453206287826	0.4924943399389697
0.4907787760949072	-0.23300194987193606	-0.14435591476741574	-0.6770920363783317	0.2722604085775105	-0.6836816833836123
-0.6985958754592735	-0.2601146913787998	0.03565023601271131	-0.5107516655524174	-0.1421326721222942	0.8478980125291065
-0.5475821419757089	-0.42934817767091804	-0.08235241771566493	0.3449965203582124	0.3716283757951131	-0.8618989217098558
0.8873425233096442	-0.36537465431008326	0.13362128732173692	0.8093321188369982	-0.3539372741304768	0.46873225555737197
0.862599439627136	-0.1524031305428391	0.2506096683629435	0.42079416517525287	-0.3155904700604484	0.8504909909937242
-0.6800433403145876	0.3574942038941994	-0.11168083940237859	-0.2530529553231775	0.2811125458449042	-0.9257105046237751
-0.593548808747145	-0.5085433344434925	-0.07893074360559597	-0.9110219204541765	0.23621194492179823	-0.3379984874644356
-0.07002657251952829	-0.5721950725337952	0.058593833904119985	0.07309233112646406	0.9972033900580409	-0.015585569840387916
-0.6171151289166507	-0.047387003592325574	0.05698621850294697	0.8741925902159617	-0.4477275184764367	-0.18795580440741938
0.05117780582418506	-0.6578646468828523	0.17080011224472058	-0.5932636232079421	0.35504972171957366	0.7224804277522253
0.8680976128704389	-0.34207170436998646	-0.01611812891991367	0.8950397425255509	-0.4164598305901387	-0.1595777829292913
0.6223291742957234	-0.4694984854457174	-0.21489690226432598	0.5472574626517535	-0.3848933478543082	-0.7432135496272032
0.05192826273268977	0.631858718211742	-0.11427040506315764	-0.4498265832858711	-0.7416930696810986	-0.49754139059618807
0.8604081262309952	0.10921134700545154	0.23036587813207984	0.5320544486354754	0.17644063331307383	0.8281224345489502
0.5557009802312216	-0.4147076193530999	0.24359517517391435	-0.00931668855152638	0.17480172553289589	0.9845595746653197
-0.42282380731439295	-0.5971122119202351	0.048540782073118245	0.6605583021135822	-0.28059671874474557	0.6963678704093871
-0.2496539758885168	0.5789925688423899	0.07629192639727521	0.22979440074766588	-0.7279532066485221	0.6459711002166848
0.6928136168579401	-0.5170288063423913	0.14174451442802624	0.5305696855237014	-0.43582460121024114	0.7270163174119372
-0.49448969843677937	-0.5714313672564336	0.018423351210008466	-0.8344519017546752	-0.5335324314072772	-0.13796074910874004
-0.14042744887515002	-0.5588730475205761	-0.0461739245217682	0.009798230394586445	0.9515683056532577	-0.30728123007649266
-0.6670817517596499	0.20047042592579642	-0.040727327147137476	0.06618162767826183	0.425669692995327	-0.9024551538016281
0.1095537800813769	0.6948726039870441	-0.1793093992746682	-0.006484105525380673	-0.5974817816061686	-0.8018562695547462
-0.5312646820330067	-0.5511646335765261	-0.01970414008253813	-0.3591989786625808	-0.8819870029235188	0.3050819896384383
0.4623421750834354	-0.17614779869607342	0.13136693934543628	-0.7984416173568467	0.21168559862765415	0.5636312544618457
0.3483588074776596	-0.32361649657840885	0.015087314605364329	-0.8324707463029422	0.5481131122923047	0.08102143347945993
0.43345496342563716	0.12133967520583501	-0.15379445561202743	-0.6643991130783906	0.2930908150049516	-0.6875111582369994
-0.20524824445426046	0.674948591126325	0.11011901028275373	-0.18779229679161272	0.17412116696092123	0.966651887952379
-0.6066667585763512	-0.19314556674035216	0.046995625087606976	0.023658476293692013	-0.30493431771116547	0.9520794811261755
0.3704031736529427	-0.3921091578699389	0.1679409773468007	-0.5853985226112787	0.41721224637968046	0.6951564652618515
-0.08499322784637184	-0.5903289111686737	-0.08564844793515768	-0.02248367844583804	0.703360813216606	-0.7104773399868695
-0.1623572528183507	-0.6404482868237887	0.04014138505475983	-0.6960029693484207	0.608032145424843	0.38193818451189626
0.20388016756436816	-0.5803493462829895	-0.11408607427932174	-0.6193475360671953	0.1618142942718869	-0.7682608695858376
0.039255146370521826	0.6912687395330136	-0.16727102773282354	-0.02024755691501981	0.3579991173111221	-0.9335023665976594
0.032055043760165866	-0.5981543822484869	-0.11604852035704603	-0.32616542604992743	0.7315431262418095	-0.5987159337265291
-0.4359725264900917	0.6025054748627813	0.05557572370581393	-0.31469018702030216	0.2770566124761679	0.9078599669973104
0.06305242663551083	-0.5566949266258708	-0.07156625866783212	-0.262147239211008	0.7956499415971686	-0.546095225588421
0.5820977683888566	0.02762077739271743	0.2201333564123977	-0.5540930373842345	-0.10700649111458621	0.8255486156379023
0.5969636865936385	0.3668517370780941	-0.2046825188592918	0.08909788011629899	0.04919555881237315	-0.9948071997889436
0.6340993953165384	-0.6579679766276427	0.052642617122025656	0.5519442576541326	-0.7964476084351543	0.24703996328641192
0.4902886079896494	0.6659902005542987	-0.164866795141969	0.1931051062629593	0.548628763154632	-0.8134598319367647
0.5637992973471658	-0.31308058523659343	-0.2239388966255492	-0.05434367667394974	0.3752000196776452	-0.9253495069645048
-0.2534752584666889	-0.7766457059274217	0.06101517007258641	-0.3193203185501223	-0.5825889723458602	0.7474119503072202
-0.7269834775597435	-0.004147219696298013	0.024943738394624132	-0.21937439038443415	0.2865295312149996	0.9326176625955409
-0.3826948087579999	-0.43913056019152563	0.05415833378989095	0.7716638782056761	0.625852841223414	-0.11332731447076586
-0.7261407201641004	-0.02175850347338532	0.04210260610151095	-0.4561193900953187	0.09137949303945045	0.8852146012300792
0.5913869551040006	0.18073513570877048	-0.17041031130161377	-0.7641301257039292	-0.2010014955403552	-0.6129466125057209
-0.6757586707493346	0.2965322976676851	0.04967145330928174	-0.8981464393479093	0.2803603744757877	0.33871969814356623
-0.4905290223009247	-0.6329045359743778	-0.07035494162888722	-0.01654715425467497	-0.9255827085322417	-0.3781836079898121
0.8443886447062278	-0.18857314511558237	-0.18366603998913644	0.658346159670382	-0.16709076500464365	-0.7339352902657177
-0.43218075902597386	-0.4028798508447906	0.029974269228189094	0.5910317390428107	0.8021041266489534	-0.08550118979728064
-0.6374881947383699	0.11865316441653012	0.09110579941970595	0.307749969136821	-0.12924072344601215	0.9426488168450834
-0.01762261142502275	0.5836691926526912	-0.047590403462771054	-0.5609412285826452	-0.827751511252461	0.013129116324452711
0.15586957442828525	0.7042188688209899	-0.17427239658522287	-0.26171682946764807	0.6297889898105463	-0.731348158872923
0.5575949848881054	-0.3268737053873549	0.2726120460257137	-0.3058589103967122	0.18095093249502317	0.9347230001236295
0.7828133260545386	-0.3470084086190701	-0.14390041676289647	0.5818296993513385	-0.35543162706308934	-0.7315343870495877
0.41372786956966434	-0.7115994914258462	-0.17943817844118135	0.3862055651826207	-0.11923089188344288	-0.9146743988123056
-0.6402942510260979	0.3660636598654848	0.009230856682102329	-0.8220521529470465	0.4726077554550123	0.3176037898371198
0.9395615159860378	0.18608469476751943	0.0515896455159282	0.9978232497487112	0.0103280507437968	0.0651313567243528
0.2617283246120161	0.6756410083842188	0.1801628952839009	0.0258911349658357	0.7104413958230928	0.7032799387378516
0.10085777948179706	0.5368980419882636	0.08024084306072217	-0.4279536953137882	-0.7524134645395685	0.5007290814870218
0.11256984775773436	0.6227052592067648	-0.18313341473828015	-0.3383968395763895	0.16674977208535816	-0.9261112743478465
-0.6417916830091697	0.38139131591387526	0.045251439174870164	-0.7714650609515212	0.3085721247658819	0.556439487768917
0.5378039513509351	-0.06319490307965116	0.19720749664377085	-0.5994357592328488	0.12271844117121075	0.7909595152404739
-0.698076146859653	0.08280769779095705	0.018724372797195625	-0.19077207690271636	0.8708800519736078	0.4529613115362834
-0.7221025122183842	0.0891357137384694	0.02563544701299409	-0.8607960734440835	0.4868532378291723	0.148337603993386
0.22626122091287967	-0.8220092530076912	0.0017944835026474405	0.3299155819655345	-0.9433923082518255	0.0341564270326291
0.5169037407295964	0.014969579713258963	-0.05302496848489525	-0.8091383973269262	-0.1780605613028785	-0.5599906164211301
-0.4576964798098768	0.6327937637424026	0.023043161604597618	-0.7375676863190042	0.6457618738958493	0.19744748750123686
0.4369439924877541	0.598307441346941	-0.19805894130294713	0.1460092955730669	0.2948891923108945	-0.9443101449547625
-0.1734316725585678	0.5452020718469963	0.0394756249269731	0.020515110002165028	-0.9260422100775144	0.3768619845730696
-0.5695503258941551	-0.3156213114558048	-0.0394950120491119	0.38253685854577063	0.2938789466162898	-0.8759570289629697
0.3245965928982176	-0.5121544581857553	-0.1609673683411366	-0.13286385885794344	0.4020040163380578	-0.9059469994748299
-0.234889381515628	-0.7658102317410914	0.060595805026071314	-0.14384149563504894	-0.5126058052420883	0.8464897592798053
-0.16542818754810032	0.5967238152975028	0.038065052808527886	-0.028742071404939118	-0.7933124087001057	0.6081359350784907
0.4683087743045308	0.6883080780386882	0.1516668910292199	-0.7892229676707601	0.30830199975328426	0.5311092018117217
-0.770716315812561	0.009319042700276309	-0.001176979363806098	-0.8955097028482543	-0.03752397868355262	0.44345723934601494
0.3122624953458249	0.6847091124143017	-0.18650356312498487	0.12309992960348318	0.2958008866308681	-0.9472846683019895
-0.7072282386826505	-0.08486422669519625	0.05139264076629521	-0.5861074119912196	0.053888211446486145	0.8084393374125574
-0.6606839035484863	-0.005763090001406419	0.03291692394661132	0.09298137232206859	0.9596545002181484	0.2653633445149517
0.2819664184573487	-0.5540380081620395	-0.15918563617819817	-0.05590863384953942	-0.17086819384569282	-0.9837064018257631
-0.4345478680521282	0.6600361905329232	-0.03555949707489329	-0.6184082396320755	0.7339562734275589	-0.2808548341251913
0.26599395855563507	0.6076488501888513	-0.21844597141472594	-0.35896451024301657	0.15004211831896588	-0.9212121596659202
-0.6640016653098345	0.09854446355311569	0.003920979246520569	0.8364113034455531	-0.3894400622564863	0.3856845464601545
0.5958076012054143	-0.6269538951627784	-0.1334359512714836	0.418667044243887	-0.7463811640517004	-0.5173326434828132
-0.6009102428658455	-0.3630411951137042	-0.04006708213340416	0.4939527466439866	0.35823368576546033	-0.7922621475659143
-0.408526549605279	-0.6554790809356171	0.03982159691461164	-0.5706230296916703	-0.4105937152093591	0.7111976933427688
0.3015984905595265	0.7690759234779622	-0.13759703180066055	0.11120603554788469	0.6480720014962299	-0.7534161522919411
0.6974815411939219	-0.6051751923349293	-0.01142490392043076	0.6257521983940855	-0.7644585173420138	-0.15503987057598834
-0.16639349153249544	0.7275084006339935	0.10321810103421365	-0.1102122270114583	-0.4735608815259871	0.8738382896769312
0.8485661763564678	-0.13483144198386765	-0.18771324949443602	0.6118851616990875	-0.004312794877296022	-0.7909348574268479
0.5566668403875583	0.13463513420708975	-0.24131322846354192	-0.692739834658606	-0.40735329291164885	-0.5951258826762642
-0.605511004291418	0.48484315275470946	-0.02274089806374739	-0.7797918864436819	0.6202130795557738	-0.08520768618233814
-0.7333200588882673	-0.17578791396529717	-0.017796578235372805	-0.9766208024773482	-0.21388311114607908	0.021582931565779014
-0.11654168377574643	0.725893473276438	-0.13646896374532952	-0.0927156726973237	0.5134010195535438	-0.8531255459530342
0.7469063764893024	-0.5521246447635925	-0.024852566774128636	0.7857665696350218	-0.6150034109285321	-0.06589159726613536
-0.6360748042936747	0.13960671208003483	0.016653453884754386	0.9490399072679983	-0.26385387593800724	-0.17234960564283386
-0.3315307808560851	-0.5360931747643356	0.1408285296901752	0.12203774726097072	-0.41459403669776196	0.9017863233483427
0.33510179038435767	0.38931301046240235	0.02852355103634944	-0.6369468567157296	-0.762428434424785	-0.11402448903863925
0.2989066100865735	0.5562771527127998	0.18878848656649322	-0.3722262277218961	-0.11681184482599884	0.9207619824386071
0.4953379113200312	-0.6493019742836235	0.16650005405942192	0.18671118494885713	-0.22122786340406778	0.9571818875577754
0.14040457866623485	-0.5223367239528337	0.06389600678294938	-0.4223449108804154	0.8750621956779477	0.23641262645785927
-0.7192683336707827	-0.12071315824739806	0.04222814183711969	-0.7388840495896114	0.005655452364384306	0.6738088580009989
-0.6035925745066522	0.26952868493374643	-0.019032462108028704	0.8586914506330158	-0.31114480216912244	-0.40723200352244393
0.4482696886711214	-0.1880585835400587	0.011478321900685255	-0.8606603620329055	0.5037128757488202	0.07441155844519537
-0.5299632378868191	-0.4381153839382952	-0.004490257718592579	0.8363890396769629	-0.08039307500930608	0.5422087492827794
0.5908873028317153	0.28715298770680814	0.2677832868164766	0.011787327930309361	0.08407576900450109	0.996389644650408
0.6911757781747099	0.10596206572695038	0.25874493159727985	-0.12101574555705279	0.048155481993251995	0.9914818399150178
0.16400292752540435	-0.48948603740436625	0.0554864714288554	-0.46111579513897927	0.8837359107193766	0.07989407724194202
-0.6927785847033416	-0.05520205852435811	-0.036128402173744203	0.37760948196820665	0.146118184486632	-0.9143634700107142
0.9079216878594005	-0.31151168519492767	0.04986050614438664	0.9566083545389308	-0.2913313643368025	-0.005147055466654768
0.48198918583021766	-0.5758548640199618	0.19705589137240007	-0.06372084065813446	-0.3741773425435082	0.9251653748346282
0.3456090091175381	0.3683456215031994	0.0019026815667986079	-0.9325573757349508	-0.22366663543566764	-0.28339015006741153
-0.7051350699643768	-0.21471543226172915	0.015971671863691885	-0.6820701967110587	-0.5745258237805542	0.45243819972214233
0.010359799999173504	-0.5328333569593824	0.14094080317167668	-0.4300607629428456	0.8532759342176834	0.2949032388122524
-0.5762689496714744	0.5082329202480739	-0.02730835738148052	-0.7588384782822848	0.6260784854355391	-0.17941542284031256
-0.7364164591576298	0.007198129779682464	-0.031000817343163695	0.05202654307835321	-0.8660557910216922	-0.4972329490823258
-0.32212462600131936	-0.7429228932526303	0.057464253034020925	-0.37028324045256567	-0.5475476602170873	0.7503878208171696
0.31564633979170015	0.5920577122665283	0.1795116909643312	-0.19631626939138758	-0.27214378642698867	0.9420178776867398
0.4805035567148209	0.05814027789458655	0.11819336683084708	-0.8765890019735184	-0.14412917377072657	0.4591497608485041
-0.6853955207810234	0.20185413686118547	0.010698425030641993	-0.8742580957585188	0.45175017551670493	-0.17774858908389593
-0.6399167569564526	0.20275801632184426	-0.061288197961927526	0.7406468749882721	-0.24833964481543314	-0.624315326884621
-0.6833151656835367	0.23300209536535169	-0.10796251530653528	0.023083869039432686	-0.36683448541190833	-0.9299997824208086
0.09057779078429598	-0.6648440098493565	-0.17368836843486352	0.21401656850821826	0.7514825922345999	-0.6240759745193958
-0.013638821309047363	0.8352767250279035	-0.036992680897742505	-0.21425829902885152	0.8612463141375141	-0.4608125081655343
-0.013759271886252065	0.5602415975852981	0.007248098461728753	-0.05011897034459052	-0.9374779700243632	-0.3444171083593235
-0.41697106039737825	0.611906662063217	-0.023586440716860377	-0.8903444160450035	-0.19498021050787462	-0.4114237940710128
-0.15980626539382425	-0.7834687161477879	0.08565353291478132	-0.2330038905820776	-0.5959093167226556	0.7685058706456008
-0.604865656300731	-0.5291356021835787	0.01739979108714107	-0.6096752167835137	-0.4305557889493441	0.6655207304375914
0.2944489972751496	-0.8112982660960706	-0.11589222309998465	-0.46859242234793375	-0.7393426970644819	-0.4835219933110733
-0.5179812732672011	0.5118991004961124	-0.041240358841669295	-0.959329203108887	-0.26323569605275055	-0.10195316761185784
-0.5138904230406883	-0.3911673948937593	-0.04072257527850317	0.31695662580725936	0.5946891443741008	-0.7388391698607186
0.3134403872074084	0.5893974020510563	0.19365902157138432	-0.33757317181447255	-0.19989172492679846	0.9198302299755681
-0.30793744822036373	-0.5262018885314551	-0.05528545272936537	0.1671751959348389	0.654265910194683	-0.7375558098349376
0.4142276622249397	0.4957455344648814	-0.2210410328546099	0.4470297090629512	0.8562852602477035	-0.2587276411549724
0.7498526744468214	0.6343093269315838	0.11659350398735685	0.9034141882472186	0.37858255988799117	0.20129095812349596
-0.39416731347688366	-0.5374131716465729	-0.02688654453859928	0.32381387950821877	0.9392090650273618	0.1141529833524602
-0.516827441154227	-0.6003008097381959	-0.08120480867218906	-0.7788522852770242	0.4132019301274588	-0.471861507921232
0.2804186736056761	-0.7462973278754708	0.143338928685177	0.09232474047261549	-0.6404954417795237	0.7623921112894058
0.6833304471890933	0.3836088517211899	0.2494899759256695	-0.1937689249331994	0.2514953066809176	0.9482635258448484
0.17067477359246616	0.7505001470030183	-0.16444499159374618	-0.19682530490494612	0.5445080731245935	-0.8153347518971688
-0.5408839998967178	-0.4486921620228049	-0.05837493707086943	0.41384429259366234	-0.23669429884549473	-0.879038514731687
-0.36464745349498134	0.6255678932330744	0.06952775598644066	-0.4536158783532406	0.4180973295965599	0.7870370117663101
-0.22956613385886493	-0.6382136182486321	0.10773199673245452	-0.05631903616985394	0.21846326819922499	0.9742186441516157
-0.6674298694210116	0.33587048772359485	-0.025012367297261088	-0.8742943809100675	0.4750024974381731	-0.0999097739792276
0.13581707224695147	0.4895160408684982	-0.03504106334943344	-0.13466116141363	-0.9547518125730303	0.26517041312191203
0.5686441298372565	-0.3757689178924866	0.20246849163248182	-0.10882957950339883	0.05518986753464776	0.9925271790468118
-0.7082130572738371	0.08712430549787456	0.05019172522344818	-0.7515878361672905	0.051605759939326534	0.6576112605988848
-0.1206158935509129	0.5950517013333615	-0.055545974136751455	0.49986138323112783	0.1564242142560043	-0.8518627018179954
0.12418864248470458	-0.6720552615647909	-0.13218456965595055	-0.12403497497668942	0.3475093414947748	-0.9294367017481072
0.5294963751070265	-0.12800017056887755	-0.22734825917490292	-0.7040144480889119	0.17503264683351885	-0.6882784534071354
-0.5236894265457008	-0.40619167841088066	-0.02938004462813872	0.9920465766385945	0.09374907181013666	0.08399226937274125
0.5899345103015143	-0.584335215332737	0.2102024464887364	0.5465115664909579	-0.5966167741310813	0.5876848921973595
0.017828056367863672	-0.8562496156267438	-0.04215716595799362	-0.06161050642687092	-0.9943308759164874	-0.08666172567502965
0.13463910994525216	-0.819693314706794	-0.09959199718595017	0.4930493573859335	-0.4344703268744389	-0.7537492064652118
-0.5168561492603971	-0.5300097116158654	-0.11005842236167067	-0.08629906081045319	0.13111450657268997	-0.9876038974555716
-0.3409912812099285	-0.5495631110053102	0.04252848921451473	0.0516250248129341	0.9928660582046129	0.10747952027385843
0.35639347372690733	-0.5022513620084637	0.16880753672297508	-0.49993170062162146	0.23804377541562605	0.8327085058406984
-0.5592871560485876	0.4608463493728306	0.05613041340805485	0.1689604213069035	0.09828358337232103	0.9807103105766195
-0.3415564422798236	-0.47704986585917775	-0.02669724445573274	0.30241727905505966	0.7459825576869207	-0.5933412280937629
0.37390420323697054	0.37798772233655903	0.10205162720794521	-0.6392304769444761	-0.5000748138703472	0.5842170640077841
-0.33518673519737774	-0.6327042211883331	0.10415674397159859	-0.36188521576383126	-0.025963502200191474	0.9318610342562168
0.16767147558398038	-0.7561242416562127	0.1179548588893842	0.012514536096161266	-0.49809371542058567	0.8670328927121594
0.5565658141512619	-0.6077287576578017	0.18304182089342813	0.25513305469088865	-0.7240424651378651	0.6408351059993351
-0.39032226461653574	-0.3575411414948335	0.027682563987016247	0.5534367438232761	0.8086813508577667	-0.1993545669432899
-0.08591803498462897	-0.5762693038526804	-0.020892792346914	-0.02045374857481718	0.9995479439115627	-0.022035244301030214
0.5518172621261368	-0.14724032629521436	0.22516243094576885	-0.4457860663778384	0.1005456728350456	0.8894747611357616
0.23999785906037457	-0.4525438844347414	0.024988913612964053	-0.5805196679677903	0.7192857537883139	0.3816083325868874
-0.8030289764108853	-0.18931874888284767	-0.040238652732151485	-0.8885893774575809	-0.1281448013443191	0.44044049332227975
0.46974697062096293	-0.09342728463019039	-0.06290624485318058	-0.6070844539897684	-0.6418353639714094	-0.46850382205445706
0.349949684209654	-0.7311281474563092	-0.2090656771933968	0.2585728810010363	-0.3850471766252952	-0.885933822011391
0.23343576676680144	0.6319609014682556	-0.13792146146832499	-0.7381326633515265	-0.2718737365824497	-0.6174502754475687
0.8818135215179529	-0.16506923006119728	0.19107950842234425	0.6828722753873928	0.024041164870709897	0.7301420943206228
0.8280777285884298	-0.24966470445336558	0.22434890485266565	0.4139653987906737	-0.0948098870675124	0.9053417774069218
0.21198295032335013	0.43461017233990357	0.06857382273279389	-0.571825615362958	-0.6110759625183876	0.5473587796381838
0.09100379692834806	0.5342620982327124	0.07448819895211681	-0.09768663177975029	-0.7080353052160091	0.6993878241285016
-0.6700623395064275	0.24236995177762874	-0.10770416553529623	0.25857108972806453	-0.11820316368863223	-0.9587330200065289
-0.6859783567530511	0.019186486554598967	-0.04577937128668902	0.8347258066553059	-0.11301238634922581	-0.5389443646938916
-0.5810080562258344	0.4899412580852334	0.009223232317310912	-0.8012421457010066	0.577457109734161	0.15669815049934696
0.7162987364296074	0.30392204618397106	-0.229271238266146	0.3040196432442139	0.1670298606632292	-0.9379088879888509
-0.09384025322047199	-0.5888293422577393	-0.08383984396968425	-0.06625736007557134	0.7306853516115128	-0.6794916328963712
-0.36070968483502197	-0.6565179742769025	0.04643791340714098	-0.616961879861167	-0.598126012880536	0.5114717113524544
0.312189050259676	0.6278945726498759	-0.11077239860963212	-0.2766581926032887	-0.5112120680818173	-0.8137090794092158
-0.3927297495074939	-0.6995066744768981	0.030262258743946384	-0.33217251865807873	-0.5017911310391292	0.7986658116251248
-0.6735817633533638	0.3559081144583462	0.01372191915773105	-0.7999677503415213	0.4172608021730876	0.4312134290387981
0.42496573131220194	-0.4196827657403923	-0.16495340727383848	-0.04532613678542484	0.14146566055782572	-0.9889049540815571
-0.8041104363500267	-0.2715118874140027	-0.05177654716379706	-0.8577557907090032	-0.22863424078873978	0.4604143649411142
-0.6865680646724633	0.13785342898746716	0.03982264818653097	-0.7290705111816056	-0.14106455695066175	0.6697439663764856
0.4533609732714208	0.38796253200091546	0.20075037089836179	-0.4776203338981904	-0.2254163351882769	0.8491562238347353
-0.5049593981831623	0.5074671838639329	-0.06868432209089696	-0.9608682219521757	-0.27211936932124997	-0.051800664886361356
0.6844986709780206	-0.05315982649714984	-0.22363859484526966	-0.17155739753948127	-0.39243007020680887	-0.9036408021702866
-0.006799531109395641	0.8509999589320243	0.06631802890541717	-0.5935429970804802	0.7483322415311279	0.2961512567957767
-0.6182341079080985	-0.03035765268394553	0.007163007703775329	0.8863313460761322	-0.18771310840537692	-0.42329721697131895
0.407510706871492	-0.24911687450986758	-0.0005412644840688784	-0.8348147998918966	0.5483795418090383	-0.0486222994804028
-0.5646531461619292	-0.21558723993488	0.06717386941140237	0.7949979848412472	0.181538770890442	-0.5788107452025607
-0.26976931326083403	-0.6055043357457834	0.07246595082779829	-0.11537701059090447	0.37433016934194097	0.920089707445714
-0.6627588998873432	-0.07433755504545665	-0.035928922850443225	0.7222813244712498	-0.021290426886356156	-0.6912715863125384
-0.6288911552060461	0.23204923249598997	-0.026365148212027466	0.7659298297762146	-0.3293375638394711	-0.5521668813893689
0.9129136960779284	0.08141909345974359	0.1268033096014377	0.9411398682294865	0.2503168083630284	0.22715026717997
-0.5129892295890608	-0.31614556860947	0.03940092607049895	0.46028189303059713	0.74090962736744	-0.4890741283511234
0.05568667091419318	-0.8558681481441577	-0.007031421780047736	-0.05149461486637102	-0.982976736351976	0.17636621113632084
-0.07920978534554156	-0.680829061834491	0.17869762799643246	-0.24975654112558845	0.11131732231153096	0.9618888313720946
-0.5282799344203042	0.42998732181740634	0.07997760675104694	-0.08974865151016054	-0.5856623706744715	0.8055710813628224
0.13279891563464374	0.7197369812714475	0.14623583137581206	-0.0745069540237258	0.3016346863759806	0.9505078799131392
0.25330545113752007	0.39914918452344805	0.04330807989278613	-0.3321945710157619	-0.6682613271180409	0.6656377135244731
0.1796698330802546	0.4692151379060887	-0.1295706830654166	-0.3654277710059414	0.5541232553154658	-0.7479371377971685
-0.4921120231963667	-0.363176034891246	-0.023090027258066956	0.40018753448563676	0.5911464227274927	-0.700282688732768
-0.6230874010102239	0.18238450069793197	0.0016940556986930737	0.8985300076635359	-0.42014753141534866	-0.12696407828104317
0.6136722146753563	0.38369037759615343	0.1893579376590347	0.29228394064856883	0.2841002046055645	0.9131578022346523
0.4988768151378949	0.5401167770447873	-0.20071623694362511	0.1577712401489474	-0.01006152455395029	-0.9874244282503418
-0.34023843632530654	0.6804692478528135	-0.10344502554227765	-0.31976328019227446	0.7629317941854931	-0.5618598776043554
-0.5222426253211823	0.40536457243263174	-0.06103590001216537	0.5233456639327666	-0.24809159661077143	-0.8152054193477196
0.40397450643999344	0.7122784865209139	-0.15971418221312877	0.21540165069485465	0.5661112512027162	-0.7956884944119959
0.5348598072399966	-0.7256373686074367	0.0373671417000443	0.5588803939886416	-0.8161671526379819	0.1467102047231533
0.6156160227974931	0.6075305889443541	-0.10038164869234634	0.583749054556383	0.48064296434735565	-0.6543847355554047
-0.6240790635850929	0.30052090602956355	-0.06043224469124891	0.43651489845993086	-0.26035110679244433	-0.8612038345330716
-0.16831362936709754	0.6681227655773884	-0.0907471271971212	0.5517042092605817	0.7255265383913871	-0.41138024694188674
0.18318521028010798	-0.4961212404780336	-0.050276404573322005	-0.4716414880426726	0.8255648692764309	-0.3098337511851862
-0.6935013579788135	0.06204646030750582	0.0680611595998755	-0.5064537343409999	0.28794683885701955	0.8127676377442119
0.69143643988605	0.6454828530194047	0.12583141622435423	0.42485100813400256	0.705437503037705	-0.5673266697375072
0.704520855845056	-0.047742938159067425	0.3143140510246917	-0.29900214701516736	0.19419331565055586	0.9342840425892774
0.8666870124143908	0.4692307274565603	-0.045675659328723146	0.7884243615615143	0.598792174762216	-0.1408366342250974
-0.5143502363860829	-0.3140165509157655	0.11883361642130913	0.2010462979203819	0.24229473612744104	0.9491436387277968
0.9128617436876649	0.2629892200037278	0.07715596845908247	0.9514921811307138	0.19991932615976368	0.23386939148794633
-0.5742479358028847	0.3239741620979385	-0.08675913052563781	0.16692850380497154	-0.6104627680938001	-0.7742545339800657
0.504511078091573	-0.0485624189927509	0.15719415668586922	-0.8250666975674179	0.09735473368780778	0.5565851241218829
0.11001492312629355	0.5350640776268801	0.0411878507794917	-0.6087140088139534	-0.6591155743479623	0.4416264429646405
-0.7321913298634506	0.2297310684417428	-0.020470612690905294	-0.9434774288158538	0.28423848012644154	0.17046650031732055
0.908288733352412	-0.04634159363246192	-0.014524190810725392	0.9925725738285806	-0.12142299565621531	0.007492783806984406
0.27309611767639574	-0.40577175875707455	0.023134530224827657	-0.6977166290287853	0.7100013988559277	0.09533896999304095
-0.6416798285989316	0.05550020617349964	0.03392413846894726	0.9074363418837217	-0.40224965929099704	-0.12146809057923638
-0.409878033275935	-0.44717328479120516	0.07313256842487675	-0.2867329273968119	0.7155784735908722	0.6369707029996056
-0.660862757171811	0.08958722953020126	-0.03922997540407736	0.8145107717597782	-0.06707609219734632	-0.5762577552995033
-0.36792174804985034	0.5288153117876552	0.08578861832012694	0.5386493231054991	-0.6660841944503241	0.5159348336965156
-0.6280797137048704	0.42428465272392824	0.03560994302179528	-0.7688943918089589	0.42296406592393504	0.4794818173631032
0.3612560894456493	-0.725672465349481	-0.10516480410815965	0.41228427049176924	-0.792383990352668	-0.4496101557325548
-0.5706387639330175	0.49771604777417033	0.048390609103336875	-0.927202012130916	0.2282869118641413	0.2969537246304784
-0.6681825980675998	0.28019781527185444	0.061504345621535964	-0.7628951923397451	0.21651795785422362	0.6091887223443495
0.44012068052333275	-0.3096986745071869	0.14527266321045754	-0.6357337729728059	0.3684939395299505	0.6782733862031283
-0.2613982627421702	0.7783484795994604	-0.015562512988748048	-0.34921012230834986	0.9052415369667994	-0.24205381679984783
-0.3325414397458097	-0.5576043256353306	0.09678384533590477	0.644232493787493	-0.5399896248632786	0.5416416702842981
-0.5799518122737939	0.42694051347025164	-0.1046344179301505	0.7405781589903108	0.11933475317006942	-0.6612890495935656
-0.5129180266482262	0.5276327393370427	-0.10699408862067668	-0.7044353811687185	0.13946224510961608	-0.6959318040919438
0.14878093322466657	-0.6702683581607477	-0.15416022836733387	-0.05907806017750347	0.16711139672332997	-0.9841664309916497
0.3177582061705141	-0.4230819409198521	-0.17827165897679167	-0.6773592857538999	0.23907053455536573	-0.6957224141210185
-0.3662480853451139	-0.6090751366242768	-0.1295326845345625	0.006784425238532232	0.5116699042336362	-0.8591553297720516
-0.20194732144704827	0.5458795022084642	-0.013131875940687755	-0.07599120879041169	-0.9951029619990093	0.06320942340640726
-0.5802406361933616	0.4255071566409694	0.01798021480795827	-0.7203531162814826	-0.42312653357133184	0.5495956008297964
0.4091680384266598	-0.5619035782799673	0.14040954634882624	-0.001088154021005979	-0.11022944227480322	0.9939055719617493
0.48534663167841047	0.042621527380972225	-0.09988745915528219	-0.193444788059809	-0.9656288604217225	0.17360880707251136
-0.5765741913276855	0.3631492262042756	-0.04118508377963516	-0.04383038782648817	-0.14592595881587828	-0.9883240924143493
-0.281345396452283	-0.6703116117334303	0.08422600353285108	-0.40421235706067354	-0.4631603087581899	0.7887299276624875
-0.5979717248045144	0.43722420884787155	0.055904818537513876	-0.9337360935881049	0.2400364750866206	0.26555488728098153
-0.7825647959707404	-0.40051421557790173	-0.13057559896046855	-0.5733912266283417	-0.3708406084472668	-0.730547564743122
0.15417333825961993	0.4963751569198384	-0.07260441908962666	0.7828168859424571	-0.6196213456396338	0.0571586486114164
0.17977201358175687	0.544219574958867	0.11872165596620327	-0.19675483819288764	-0.5619798376467579	0.8034091085656269
0.2650408661993217	-0.4321502662023222	0.06283838761327847	-0.7143691597982416	0.6582477907156484	0.23745852174036808
0.10002457714973219	-0.528289955737751	0.07210176765491808	-0.48374007956865295	0.8386327705847884	-0.250380932820761
-0.569193634140884	-0.3550479629433473	-0.012362477646530954	0.5863599940276916	0.47625609180263523	-0.655257271935784
-0.39737123077431047	0.4939610998802343	-0.027477279226478763	0.4294886357504356	-0.7777250096462782	-0.4590025284591867
0.9251746304026124	0.17512432082655807	-0.11338266476934783	0.8984882992981715	0.16956167396871336	-0.4049291478088565
-0.43300611833922187	0.6712203275034806	0.02418684421195632	-0.5765189089438507	0.807499909978421	0.12477917700896014
0.4889328539417426	-0.19674775245362958	-0.21464460185273287	-0.49040966796848573	0.1777763792008659	-0.8531669921892605
-0.2958028516790898	-0.7210461119150898	-0.010546588503226244	-0.9594512869444477	-0.2752443024577185	-0.06077665625227381
0.6321128860487926	0.2957885646645442	0.23938150799791647	0.387984640912488	-0.052129786835042824	0.9201904171097092
0.4812604327289371	0.38376441296449454	0.22062915217261797	-0.5016276166331841	-0.21526919757193455	0.8378716529443191
-0.6171213905187689	-0.3961233163491512	0.023823114258423924	-0.20327271213657322	-0.6136700114212478	0.7629477843095734
0.8754530760943664	0.14870479457568633	-0.08417186625273	0.9296422421116703	0.23531517936914517	-0.28353495029723075
-0.7697072821106765	-0.0822389782954771	-0.04275777324132876	-0.8715601329766631	0.25684786849551927	-0.41762675567426394
-0.6955792327339925	0.00023345219619514204	-0.011170058099303267	-0.7225712769724414	-0.5435384782373853	-0.4271494731002281
-0.6969037633023856	0.3140352968162638	0.0029984714701906338	-0.835045137079213	0.4371792856665582	0.3340267821963313
0.37970912449049754	0.13219789845860355	-0.051142627135769544	-0.9976071447536325	-0.024770909370853314	0.0645475544497759
0.4068001851129755	-0.06658174773597605	-0.005571918660806266	-0.9602034308865288	0.11238596938546228	0.2556927163589694
-0.6139419710864484	0.27120049434148985	0.07870546838296245	0.9376787619511979	0.1207152566188806	0.32586249585539184
-0.4696555945532743	0.5073149143448433	0.1126395761504289	0.6738905012322838	0.27511924517347053	0.6856974502534483
0.4744371259798359	-0.08275298421520338	0.12794757095970893	-0.8584850006073497	0.1686352065870775	0.484319802229408
-0.11123205994482362	0.7087496327189315	-0.16720603131460166	-0.14393518209498335	0.31463156798442765	-0.9382375177869112
0.7920180747766411	0.488156815686099	-0.09411185435260831	0.6725092297685233	0.4248279557109967	-0.6060136499473954
0.34596995169681233	-0.3547724177837704	-0.09531538730555185	0.07221237547112458	0.3904645738417374	-0.9177814496945379
-0.049244904638533316	0.5834868572711277	-0.10185300348704923	0.9465371266448375	-0.30347837594768773	0.10939992328648322
0.42907832429941895	0.0061136727266086	-0.13454346123590233	-0.9800681936428731	-0.16677744156974267	-0.10794267364228977
-0.3898383627780299	0.49216589522190085	0.028392833170367598	0.52276094629081	-0.733117828447466	0.4350393575822854
0.8399008659558851	0.012070597623542796	-0.21097058532437732	0.6586801017376547	0.035684682110113025	-0.751576427941678
0.2510320313863071	0.6257078368593731	0.18152714494901492	-0.2026487014718753	-0.06126443648658875	0.9773331942657746
-0.581925028514902	-0.3781405829870074	-0.07517366275828953	0.27446253058494435	0.3827848436443101	-0.8821258882841551
-0.38173669873516486	-0.7709011230723463	-0.0444385722800552	-0.4710801082483116	-0.8774003626981857	-0.09084126347564407
0.5022903052564814	-0.05226320752587242	0.15632603287026775	-0.8250186291203825	0.09762623063812126	0.5566088219707964
0.05956340883492459	-0.5972774427692259	0.08469120694750842	-0.2734748318804553	0.7130737851492597	0.6455519291744566
0.7295574880389027	0.11413365260673917	0.25944131417385774	0.32399918366903235	-0.038588939806855266	0.9452700263450562
0.21619874683053494	-0.7919556741095073	0.12913627015811854	0.019364155127429977	-0.6738726806487545	0.7385936905846566
-0.44226317091613276	-0.6974725249601538	-0.11413934028468334	-0.742404153445937	-0.2916123874860391	-0.6031569351428488
-0.08667245452385572	0.8240126386372503	0.029110881146738758	-0.16297609325244716	0.9663605814631763	0.19896235729987177
0.3750974602985148	-0.7994700896741039	0.06367846440241977	0.3395768315258288	-0.8387100423978069	0.4257382297515064
0.8252341218200896	0.40904868240027314	-0.1261456269982943	0.6137825619733805	0.408453263236301	-0.6756011385196218
0.12832160150165162	-0.5179612800083422	0.03671648541511892	-0.4238993331271339	0.8906748663871661	0.1643400065734911
0.9172592803629877	0.06468851283402449	0.16288225416867774	0.5670708911160064	-0.13126750704044257	0.8131417133835185
0.11400267541420629	0.8501894055494479	0.12303805665445172	-0.26210730163469165	0.9058461343694479	0.33278002235366777
0.39674367281612694	-0.27130314893612645	0.08043719395510662	-0.8275851694208495	0.43421871936270484	0.3557483536289045
0.46805618842503083	0.15729014636754368	0.048399310791386214	-0.8679586692789715	-0.22895622798356335	0.4407116904406044
0.33859614945906547	0.7141216492686447	0.22905650507537428	0.5941932403146768	0.516269215418102	0.6167661553424624
-0.3919455532047823	0.6759186598037712	-0.003051521092438045	-0.5393093517520613	0.7594448579374472	-0.3638528972883711
0.33577499872063094	0.3977690652174406	0.05497209006099924	-0.8110430391947127	-0.4189895459004581	0.40823638862787887
-0.3036424870238115	0.7135657340166964	0.11499661108165285	-0.4678767719200212	0.3014065308906369	0.8308101043163656
-0.6219206952996954	-0.18766196873292482	0.04576195121207316	0.024739159103670263	0.16014076036284808	0.9867841257728317
0.13589602745087115	0.5853491145831885	0.13220518321650498	-0.2551344227982285	-0.43846419099845835	0.861774668643424
-0.7033830751338211	0.20650300896728274	0.04596154097902775	-0.8236363500146056	0.07516969352632896	0.562114472425124
0.3200065352371765	0.465181137150444	-0.18256940822344753	0.35753161885098517	-0.8730569834100079	-0.3315760022088614
0.2327132228391197	0.4142517744504306	-0.017028905094933693	-0.7050087635089999	-0.6138177059946059	-0.35523297592288805
-0.46301750490685606	-0.450154330986118	0.014104730385676204	-0.5653142888530881	0.8192410427439435	0.09624899325366454
-0.10161034622796915	0.6511941053190867	-0.16978427967357304	-0.22231817300472828	-0.028848586130383172	-0.9745472738816302
-0.5941806980112514	-0.36364752112505766	0.05866930963004114	-0.1576797157434319	-0.09656596397538128	0.9827574074228976
-0.3447894772815902	-0.5247396652109	0.09392390146650711	0.28710324674002985	0.9397293839230463	0.1856890161074332
-0.7312838289621902	-0.052430894204255694	-0.027684515958109508	0.06709280519115829	-0.7141152775131734	-0.6968055151287663
0.12773623946088156	0.8617057833688122	0.013551311487644883	-0.410174835824717	0.8155616404829482	0.4081860049400623
-0.4046693344431138	0.5016466057213049	-0.010970548230873046	0.40245503642294045	-0.9152292218048064	-0.01963199461027526
-0.45287100722608176	0.502654271087338	0.061475126423819235	-0.014283364465521392	-0.104673526113529	0.9944040619539449
-0.6236585303412693	0.07553306646703417	0.02981326758947042	0.9834498255561159	-0.005255493886687786	-0.18110444610128162
