0.2829886019432141	0.672139185472507	-0.16037334897075645
0.3389478294880059	-0.45945640194008286	-0.10275897296941794
0.7804498093497857	-0.20819946817346652	-0.20017782527474529
0.45741716856532666	0.6455261138444867	0.12350323330895852
-0.13796683051496939	-0.8063735247188726	-0.07033550170599479
0.10216859612463104	-0.6953051377061676	0.08707858973485519
1.0512959034233513	0.2624929235198243	0.10754506518072049
-0.5950087095036305	0.2728029713791597	0.002132364590099599
0.02720039203006168	-0.7704989215732948	-0.13635866208915426
-0.7321971038508016	0.19012664029184279	0.08640620645559946
-0.0954726274779056	0.8347017862784964	-0.07930317797330444
-0.560677708793346	-0.39082854582322557	0.09529066631652036
0.13566959946871782	0.8328459837603912	0.021105437372851428
0.7664243919760932	-0.27570809446643385	-0.2629850507263711
0.6027868414869426	-0.5509948374808395	-0.19139125650315678
-0.131278041653782	0.8305994756504852	-0.04347731526745426
0.6438906336442047	0.26995583236391024	-0.19771693885309824
-0.23276625347750285	-0.8398180694922754	-0.04698050525973534
-0.6280561423803651	0.29282693485680944	0.03994739564411659
0.6997541474004613	-0.5916563669047405	0.08223709595078312
0.21596133338284706	-0.5980683372883621	-0.13959871705330293
0.43284559525506544	0.4390933438338569	-0.26642294878149786
-0.8242812580145427	0.25519296757147764	-0.02613650840838468
-0.8024966260593827	0.0027873786008497277	0.06158152437665929
0.7345946674089772	0.3396241261240357	-0.23670255147831348
0.4405353450390911	0.48360277965053766	0.17964730586437683
0.7131587469302373	0.24923980772644447	-0.2497608060131116
0.11561339585629132	-0.6174442027834025	-0.053604640486879046
0.42945484188420935	-0.7654750807376813	-0.1941858900224412
-0.0008681313393762726	0.8810597394784979	-0.18581881906724637
-0.11906801302344923	0.8453413113249566	0.07360231809787371
-0.2792314600109152	-0.5946877630813036	-0.14087219123287742
0.47201469526005146	-0.41243485556622844	0.017853565455833078
0.3885138034879051	-0.49595115775390564	-0.238635073447382
0.08370847534541609	0.8005478022942152	-0.10187645558832367
0.8069745803753108	-0.5271051773043692	0.10250405756282448
-0.5598984796517377	0.45908437274020253	-0.06267453045103615
0.006496886552503828	0.677167899698028	0.08461143443785363
0.4649329037201016	0.05467985808421294	0.06344449541317382
-0.5570769985432029	0.5167226199486057	0.015429531365737575
-0.5904745506003652	0.34206422666547426	0.14452304584235004
-0.3884498928498574	-0.7683285058983206	0.026176829615963015
-0.10658014157170655	0.8387287100291482	0.0054388695834259
-0.4693997251123296	-0.4656340805440197	-0.16017930932721997
-0.218718069262231	-0.8400176147416114	0.09448004401075184
0.8984238619202718	0.35857880697244615	-0.13114472043474676
0.5457198815302999	-0.44703490593905276	-0.300201056195455
-0.04047001154694762	0.5265163285543685	0.07056747303923386
0.5461730339460197	0.41294198976588276	0.04645229580803678
-0.7636459936356754	0.00741893527186379	0.02342215941188605
0.5496900191602025	0.28501711793838624	-0.225023633470093
0.7625150333054673	0.30046579831073916	0.19623625643756362
-0.6564827906649278	0.4971241446624966	0.049926768954710696
-0.5676833306777596	-0.6631861628963124	0.05904269849916734
0.8912168359484036	-0.30302067005921024	-0.28408916260966544
0.8992277004980749	0.14958275966777745	-0.26435482620955186
-0.11664493694232869	-0.6338459253711758	0.147056772392171
0.20033565566809874	0.9232580313408435	-0.006073011525973324
-0.6454857143836785	0.08213115334950029	-0.052712898457326074
-0.6866589747527159	-0.14594282682735252	-0.09405145623805475
0.26886066274273834	0.7680218759109955	0.18916938697425623
-0.6149567263814026	-0.41612517261062276	-0.09265168786585821
0.46388250756098626	0.4192035409233982	0.07952911026360183
0.4055411114600755	0.29353735148566495	-0.14346801620756827
-0.18907499857935467	-0.7220244537429316	0.1776645062875159
-0.17255340436245586	0.6003304962351048	-0.03827037098279487
0.07675729154233923	-0.8812297906260828	0.09115174681026877
1.0326818071525508	0.05273268260156227	-0.12305917518467936
-0.6244132991780116	-0.3540968287764146	-0.05062925904010077
-0.31355957161584963	0.7604984722017325	0.16694509693494847
0.9110798895227609	0.25081339678084064	-0.13493706399477876
-0.8238700874677529	-0.09718219991834248	-0.08442899970247639
0.6440708665637639	0.051034073179756806	-0.3069950137414254
0.09152146636088046	-0.6168948437670384	-0.025281868310190504
-0.03633892617584572	0.6013871193237751	0.15922482328402093
-0.49817004921575686	-0.5525575148470099	0.0687108007662987
-0.44798162451452445	-0.5258972516299358	-0.1399289151674386
0.9452654215906067	-0.29966996854392075	-0.015572266617384277
0.10546826391517942	0.6092708344062263	-0.09179826982274196
-0.26847407439740095	0.7815237636420942	-0.0470409157376446
-0.037418598717538123	0.6522700506123068	-0.12313474426779455
-0.6442144474277621	0.25311539305802	0.03362133948237511
0.07506995406514533	-0.9066699006849279	-0.10381090153405169
0.7069120735270541	-0.42035393216185624	0.1929388056733352
-0.6973977659060163	0.3877341700189518	-0.07451684626868652
-0.6514284317284372	-0.35583857208850056	-0.11559339037886798
-0.6283843618713262	-0.273768138570554	-0.06349913509691968
0.16624170365695307	-0.8810986312608673	0.07612315695076391
-0.3138060890250831	0.6643651448927491	-0.13575202620391727
0.8995995320045836	0.25912182810625956	-0.09330143134539429
-0.06282113957578606	-0.6898046714691037	-0.18164200384475934
0.49610380763038925	-0.007912589989169036	-0.12436329628829926
0.7296517846666607	-0.2549750619910813	0.21977378761033664
-0.03944864927699409	0.8873874832968172	-0.04092958345606532
-0.8571268475765768	0.29607018551926717	-0.1000056840020079
-0.22699702287615922	-0.6455188873061236	0.02782171004900235
0.35978066314593227	-0.8584806332038079	-0.027315740291514373
-0.3474406064451388	-0.5273270947927248	-0.03348101018894976
0.5200134133417503	0.5625233612302533	-0.1835499436759385
0.9619041873356984	0.0628224006892839	-0.1336310884206852
-0.03329171123825665	0.9525474843898801	-0.16028661210379835
0.32050649045621477	0.768906664653748	0.23707500910745538
-0.3895045285239717	-0.7282140577574666	-0.007496071822522401
-0.3023062306080223	0.8774632544264142	-0.16722272119277123
-0.48430710634687435	0.7858060622097571	0.05070874722615462
-0.14542121875670547	0.8236664536850884	-0.0013200354072836658
-0.6536374873856028	0.41086247552791966	0.0016020363359830394
0.22730959333901038	-0.8522053771437252	0.10538794910240071
0.6042589808883906	0.2783063344530142	-0.10359811426492443
-0.6900176415221793	-0.2992943971635429	-0.04040203089217595
-0.7524435012447509	-0.1371108702923426	-0.08057650728487839
-0.6372459797950037	-0.4854599719931931	-0.09324807986601576
0.991196778106176	-0.24097740191441608	0.0604708378143754
-0.09419899645950512	-0.7146970062723329	0.22979014692266664
0.05482279946051078	-0.6410420745672935	0.11335026701841182
-0.5840916939279042	0.4463893866259021	-0.020347994702054943
0.4856167346021831	-0.5269817068604047	0.29672406227864156
-0.03481333855881633	-0.7096054148605209	-0.08793789747330812
-0.7062940067481123	-0.3617762374067598	-0.019638519119601808
0.18593945112089957	-0.5692571634509946	0.10878777350073687
-0.2734003758219896	0.7775300470710986	0.12329659724005135
0.7110234216556744	0.38534456394653016	0.1850445602475732
-0.7631273456772498	-0.0935981338732825	0.039015886264671625
0.3042316766780368	-0.7046728661015065	0.24364897595838822
-0.30616494997815125	-0.6383578664865638	-0.0789917944431773
0.9496736978846326	0.13138007729001958	-0.20953545748916141
0.9417241730620912	-0.3651533564172481	0.09263071630069218
-0.14756388067701756	-0.6269446520425371	-0.03158936755859295
0.6540942282750305	-0.20926866327293017	-0.2002324246623409
0.259884643396289	0.8051776097253052	0.08320271288272046
-0.6051749967502305	0.6276102785378197	-0.047019386421166744
0.3899161974699169	-0.8126265021409365	-0.11457238706776612
-0.8079385983485746	0.16826942053512223	0.06837570764320855
-0.7705979590526573	0.3311299113748004	-0.12247397946145308
-0.21133476161695622	-0.7522238658544055	-0.14849883433200123
0.5439095568204521	-0.8550142595492181	0.01861686155997863
0.10240681643798508	0.7156600614266992	-0.11465660404057151
-0.6738460458342546	-0.1545464140735974	0.11573602220497228
0.2493044609084989	0.594623482186937	-0.13170989653472792
0.09045196699800685	0.6521024042331277	0.062406574556421374
-0.6407856126735803	0.4856686586237791	-0.020174285830236074
-0.624882729087929	-0.43263691238535723	0.09335707008123231
0.7919466511131499	-0.17921349209320875	-0.3065544586628971
0.2646660682615403	-0.6079495560441068	0.27322189142528946
-0.5542474415570546	0.37836198611146216	0.21907191142697058
0.7706284269639597	-0.5453673910127936	0.1568071626128149
0.5565078842796062	-0.6733366741606174	-0.114819647901704
0.8148035908623555	-0.6403449424321859	0.11091261119549808
0.11015554633277824	0.7515768453698298	-0.10896446247784841
0.3807407505820208	0.8434299706483376	-0.102757611628498
0.6099023172094967	0.3405528083282697	0.2116388755282454
-0.2571168589987112	0.8465889525193027	-0.012979464510406685
0.01892691897176727	0.9416331322041915	-0.04836224942173842
0.47525492396649466	-0.8031807357915539	0.12907647065858102
0.501880237260109	-0.5629289818973509	-0.11228244792364471
-0.7414923831749713	-0.15469335240336912	-0.08222550254985934
-0.7126747907569156	0.35014526722689415	0.017141149618524733
0.2274580196726594	0.6532734662382749	-0.23447296147529678
0.5080742894880208	-0.5160691105725188	-0.14293329167062835
-0.7003311845329934	-0.20391060106772202	0.06551333968261765
0.39595594068000767	-0.3226722396113055	-0.0925591090426802
-0.1870639883920533	0.8634072341971255	0.040566160127216255
-0.5633650504958536	0.5981104883884252	0.025248040636812366
-0.24831597988774118	-0.946543244374784	-0.01759932657877117
0.8664365677905098	0.5312033853060999	-0.16626802192028595
-0.08122573203042345	-0.5508847633591925	0.04858413841357734
-0.041339272751157737	0.6365180851501884	-0.1340961978418871
-0.6923638510861996	-0.2696090520046827	0.18214827522882834
0.30335492861301616	0.595171077449853	0.180575052570562
0.9244065877882479	0.35899428463989774	0.10799065896391666
-0.48986300788469916	-0.4849115904052455	-0.03144354411793358
0.19715147664257193	-0.8855099338697553	0.13547230621361342
0.6059662103699539	-0.18786874584793278	-0.2263797171517573
-0.5662573764808165	0.2571398854247179	-0.11939623859911785
-0.6502128595135584	-0.20966417372039559	-0.04193070889254053
0.023394961978413953	-0.7383255142589186	0.10292176684461096
-0.1678480815478632	-0.5594459422682653	-0.05905751999789323
0.4963587140084152	-0.39694328130415835	0.12348795027716097
-0.040351751969986166	-0.979549378128684	0.05288266816804203
0.5442674810308802	0.21697676013711165	-0.16978644612241806
-0.791065547095108	0.1843545991681687	-0.08820658482835106
0.4176527174576503	0.6845554706832061	0.10135469988666528
-0.7958995175511115	-0.06289230157199813	-0.08284187570378165
0.09370456266355445	-0.6407926961517751	-0.07787631123888396
0.5650032506656334	-0.07850469183876682	-0.03342733019835305
0.24052220708769206	0.8425256074039602	-0.11598620753601649
0.9051463076498255	0.4897378247673284	-0.02898364346643489
-0.7424473916047725	-0.14619553245011224	-0.02767466796677467
-0.02813872293970784	-0.9105992241040857	0.07802430177624269
-0.773096261312909	0.1462250342547461	-0.09430293130018827
-0.27178757574769646	0.6153145878391102	0.06047457577506887
-0.692291678640715	0.09438287956700832	0.12714634390197171
-0.43220948571426676	0.691260467535575	-0.06331841839401894
0.397254736686662	0.20314829761408174	0.010631484627426604
-0.1914375794383213	-0.6304382522879513	0.09278405121024723
-0.7216533235604923	-0.04071619934117458	-0.07772689721115068
-0.011155200973386858	-0.7664303484774935	0.17711839875243332
0.14843441954884307	0.5727038158691269	-0.019014111583670182
-0.5524429035856186	-0.6288354006104928	-0.015635974782095267
0.1268710911356406	-0.592867767157274	0.041553415065523666
-0.6695768121457354	-0.29187757660524555	0.0884245774501633
0.606463230652622	-0.39216126250287636	-0.22665653377821113
0.16593825771373527	0.643957563731493	0.05250162229632674
-0.4399616592021227	-0.47768673443438475	-0.15066690193335752
0.591607548530726	-0.6391119917854287	-0.2596471069632476
0.4999555500508389	-0.33351466628123727	0.17666184097940713
-0.43090811568257525	0.6098098980883001	0.0913006957516703
0.25871332135964176	0.5913417175073263	0.187618329821875
-0.5315270841708044	-0.46174628862991796	-0.04142009182358093
0.17907949144120244	0.680328108707321	0.12059348050052959
-0.5392887905358056	0.6025702273875507	-0.06049974364668081
0.28908926671965746	0.4254210264002949	-0.027157135174094457
-0.2967947113794577	-0.777714387021633	0.013042713435764013
-0.7013373368147482	-0.33810389688329845	0.004842923118775433
0.5844430584438884	0.36121742933237394	0.23575424779235418
-0.06863213595241348	0.8873430094468342	0.08955881040928944
-0.13683669121002867	-0.69324297107629	-0.11161133435286538
0.6035212216310463	0.15563317523794815	0.18197990383102117
-0.16133905392358497	-0.6158551349553536	-0.09757070853076152
-0.3128089688576028	-0.5860317227473666	0.07706405995258224
-0.7256790185063837	0.04120159584471029	-0.014996009434569607
-0.7300026808234862	-0.07512078112168791	0.059687501828029996
0.36781319317553657	0.7504619063804783	0.16842372174474576
-0.7070924822897906	-0.1130535966733559	-0.08480229102808404
-0.5969392875872338	0.39295336973189343	-0.17735262291397447
0.34492068764027056	0.43469834351735603	0.0898982527018536
-0.5209083049062904	0.6194539809534156	-0.03441189721924093
-0.8406110994119849	-0.31774670757584733	0.034193482276268734
-0.17362463382441645	-0.9061242552778421	0.1669595493339166
-0.5003521659432768	-0.5206263179262669	-0.01872688689623754
0.09536796198570643	0.9790321205310106	-0.04857788719614414
-0.6815741886795091	-0.06292519371521248	-0.07722081056758753
-0.8526283706878324	-0.09569892700932835	-0.062420996920791956
0.3998884253593159	-0.8419540047226328	0.032385287741127686
-0.015366980684364501	0.8859104916946657	-0.11083623257378228
0.5037316373745163	0.3755589643029883	0.23958680728953363
0.4813569307509525	0.0056245828038788	0.1513282416624026
-0.6015666950238228	0.40059315649276667	-0.13030727135962147
-0.3988212860885225	-0.49178460408220465	0.013221783715727388
0.18933749040793285	0.5204362148185493	0.03876799313348332
-0.7298208208431622	0.2745392387086208	-0.10211358908751522
0.1632572496629202	0.8633058521407049	-0.07461997432215114
0.9637741315340229	-0.034818236846100394	-0.15476238818640647
0.27653754298737815	0.66112904128952	0.15401480966375686
0.6577594183489991	0.6442758628358634	-0.10105908627965843
0.0994963101919705	0.9248662528767128	-0.004595728797256265
0.5203203192056263	-0.041200599986323846	-0.04388621508582884
0.2524428675785796	-0.5024006062168557	0.08597440401088077
-0.5594015459162709	-0.515048629063474	-0.0756847286714214
-0.6523143753134759	0.658188287383519	-0.058194918631347424
0.8618802842507578	0.1416847195581424	-0.2942327145055649
0.11212822519961646	0.6831616496780226	-0.06834633320823919
0.18960359202480917	0.6581125679983483	0.21842721092195014
0.5259253856913945	0.3777250560297117	0.18731562742266766
0.3099974636008626	0.47803110626470574	0.11593687289502991
0.3939985065719	0.3523088867466216	-0.08663224220234
-0.33858452291072505	0.712014289855524	0.0697073803558145
0.34154679022947315	0.9340991420995051	-0.07020264017443849
-0.35527912945372314	0.5522470834777596	-0.03180059032387483
0.0894109874817406	-0.5921070773053825	-0.2750812280407918
-0.6598066840027321	0.3571647422226093	0.04801850055845971
0.194503332594596	-0.5244177754072163	0.17138774529751052
0.4235924612410216	-0.6339111829640933	-0.2524524622435639
0.675782363872959	-0.4361453051212681	-0.2607892727766235
0.6761601496936779	-0.4329820431265132	0.1559010858432321
-0.47202384176967593	-0.478897004003239	-0.030546991531297307
0.6180809684115518	-0.4089698825627811	0.2565978054534661
0.4778138849991138	0.2510753679034234	-0.10400541944412009
0.513883894621395	0.10065941174882627	0.06782718292654039
0.24372365835555018	0.5689118768194695	-0.1921094986506414
0.40070151007193144	0.5214631430567257	-0.1171568018876432
-0.7628394421457699	-0.17105132222991704	-0.029757617683143608
0.8587257807899303	-0.46253149821227174	-0.14237382283535047
-0.1191512740770106	0.5373138655402118	0.00328524712368352
0.4008841985727961	0.13744269381615903	0.07942383462968458
-0.6915437333100295	0.42327224380447004	0.0014650307739817667
-0.6984602863194762	-0.33575109946790893	0.028493098980659742
-0.4908609127612307	-0.5224456241064385	0.12285773765787798
-0.007971546724454322	-0.5937110156533127	-0.08906053284207513
0.2498277205058055	0.7608270825230065	0.10450435185078619
-0.8121261545214905	0.05713384285787151	0.05824270104365078
0.7658824437426804	-0.478862843036014	0.2054786294932558
-0.6248039887864377	0.6238738364966564	0.06966656613469667
0.5952072283405287	-0.6664685080583107	0.183402734210267
0.6134719138778715	-0.7884594017077137	0.035931589167023846
0.8282773333870987	0.01672489724140758	-0.1526673525503653
0.8120500795262553	0.38715575786531076	-0.1335155775809443
-0.4727848761634087	-0.3215293023443861	0.01101820998641763
-0.7077427296262109	0.10936000612500664	0.030595807669027517
0.9698539059231662	-0.12494783895645742	0.2327495194871027
-0.7664103598109243	0.6194920467291734	-0.002790418464859737
-0.6783337217557999	0.4991446542352862	0.013769663445952554
-0.46732961961956904	-0.589258106045541	-0.048618610341285125
0.12366688394334303	-0.8976044286582193	0.06933552898355858
0.8901384410427013	0.25065041721932313	-0.07836089710562708
-0.4160143520008499	-0.6248753372984654	-0.06379961520046104
-0.36825207915389935	0.6803319736100352	-0.13406982309067406
0.8327195067313746	-0.1260539887772	0.13188688595401882
-0.7222642570163667	-0.07640397332846545	0.07227713349856109
-0.6838496467049332	-0.09685047565446245	-0.05980724187712809
-0.3238987487775614	0.5178255608567804	0.05390608781278204
0.4072391886613675	-0.4908652152374922	-0.080118213457625
-0.538554015892934	-0.813371483746728	-0.008640192615305258
-0.6597913565730761	0.02593130891206147	0.04504101203816352
0.11216061084909415	0.7646915822722377	0.19582629093757578
0.31893056757307425	-0.47225972293531826	0.09555889135008505
0.35199400019775534	-0.3614860427342621	-0.011530481441189566
0.04102152178706195	-0.6816237431967466	-0.21404511444477703
-0.15423121516638602	-0.6710529470434635	-0.07979389009855013
-0.17776845747860473	0.8745128559860874	-0.04295844195207717
-0.4549681585182357	0.595426729035662	-0.034693713659630324
-0.20417927442648726	0.6695624830732809	-0.17949104206488023
0.6459268734030709	0.570009297959554	-0.18274699129394514
0.9107223808705995	-0.09553958335621338	0.1363428816446919
-0.5814774835444276	0.3522365745657097	0.001598407240867808
0.2685029636836963	-0.6862358912619209	-0.13711537754552308
-0.4170037867270089	-0.6545340632624356	0.09594666068208246
0.3092198558096746	-0.5477408619258245	0.1542688864985095
0.7636690762538029	-0.027082738828439354	-0.24801077704258714
0.037083083646513415	0.5864627911883563	0.025890266016013
-0.6641288057237675	0.40336756697273757	-0.0005699564249031924
0.22500954066588522	0.7492521851556592	0.05662791428812648
0.5056847562545974	-0.438225517694646	0.15497915169957438
-0.3986529227349709	-0.4919955350298049	-0.004429655664473245
0.6611552641073618	-0.3650584525468113	-0.2948770963893731
0.10748697582084331	-0.8659960494751058	0.07754296579935586
0.8368805380541781	-0.4718183232652438	0.016691537859364593
-0.3624097662796534	-0.783108369597832	-0.06373039485908039
-0.5188475254340349	0.424641055334195	0.008965773651129522
0.750935982959781	-0.4934435815949101	-0.1077860480122366
-0.5304964487172258	0.4538987900404277	0.011244269818081689
-0.30077367641708425	-0.666652687072948	0.11632695180326977
0.0068182711021507695	-0.9047324365403082	-0.04559702304952952
-0.6739561945251867	0.3599320291169667	-0.09887149164205075
-0.5436649890028085	-0.5682410025428373	-0.19234537567103221
0.6606032525031909	0.5679960762226635	-0.1969566183979885
0.31644977404460883	-0.6499318545422533	-0.19561499286235037
-0.48340989282674757	-0.4657170541470454	0.016194286506117535
0.8419355361998967	0.3862525732111848	0.13734287634920983
0.6978329323507055	-0.6492137341365628	-0.1786673754172732
-0.17346160820506662	-0.8455070579823635	-0.15464641517364736
0.12530718251612913	0.5652213563815692	-0.11038077446118669
-0.5696775082716661	0.46324337201367466	-0.026914320123319638
0.4755243457180146	-0.7786798182461867	0.11097183562506156
0.4295953627557873	-0.4514745277659585	0.11413872939610178
-0.2709919099685801	-0.6770282900279722	0.06560541375395668
-0.7464436256333375	-0.28547993056952475	0.04094592575956267
0.503858473888834	-0.07349684795904562	0.1098554494530112
-0.13560626876736057	-0.6493866215774036	0.1797749678886128
0.6943197050267123	-0.09311384060933921	-0.042724832146026515
0.7975692991539349	0.3141011191736503	-0.22520114653409015
0.8301606024927031	0.13086921359628162	-0.17982704728877275
-0.10567882141863184	-0.8432767576705203	-0.1380945239191939
-0.1334221923104482	0.8222552536929042	-0.16137847327732685
0.3886597380027081	-0.5657828647921198	0.2512934289914402
-0.037478672643450145	-0.7048772143040635	-0.17558783366268527
0.08397949029407076	-0.9322383214044455	0.06982179298866313
-0.6946774034973963	0.19876837340872155	-0.004298079489943211
0.687422349658089	0.002048438780584083	0.2738826766850781
-0.5302751364557108	0.30653224357131514	-0.10683494370742695
0.19425044542375208	0.8806238929506459	0.007974796922464611
-0.7746604780825901	-0.40087575969921885	-0.04760643118567025
-0.44487078764394805	0.43419584000137035	0.026087109884831153
0.5636239227542796	0.2975408756362013	-0.19263126956159396
0.4050938086785494	0.9000609374024048	-0.04204174323111927
0.20364791933657694	-0.6092694723083557	0.2616524891667377
-0.14414074339749713	-0.7157512604962667	-0.13828205012577136
0.10674214319808722	0.618255768010719	-0.06683767606123645
0.8269740883942117	-0.16144646353205003	0.24122566200223336
0.024429647937530257	-0.6681733152169187	0.1791774373149011
0.11429951381975022	-0.5766605755003852	0.09969393668398135
0.36673684065814055	0.6196798708314979	-0.1883316727497133
-0.20379986506356365	-0.7494925991187777	0.08040579523112391
-0.5835966533055449	-0.65275446720676	-0.07101769849573583
0.36461481022735975	0.7299198255796713	-0.15694143827071885
0.6185614396906816	-0.28255687997179163	0.18824592605346052
0.5047028204321596	-0.7779732468456896	0.06322142433225306
-0.3412725904863173	0.6142307195717297	-0.034891706793800825
0.5905047715262604	0.06017387177107285	-0.03636115423803524
0.47944005444322874	0.44953917260950293	0.12783942040248453
-0.27735064537071813	0.75620236109653	0.0445858083750522
-0.7748156197112337	-0.158018841340471	0.10790920419655359
-0.4242398005564301	0.5950114714283496	0.08379293297046808
-0.41716504261298926	-0.46783551274182844	-0.05203033436694751
0.7236181995196108	0.6339263377793858	-0.041660198028907316
-0.4405143861339951	-0.7350253051881533	-0.09518815006055446
-0.5466411143348476	0.5505994017122756	0.08211487939489895
0.5426951038627046	-0.07518920877877255	-0.0077721837578274
-0.17772034137102063	0.871029875107217	-0.1304175686628331
-0.20593081670843633	0.764774122686919	-0.1430163679578114
-0.1900995944721907	-0.7909093912852212	-0.11191993680390168
-0.6473459519724757	-0.22985416844746695	0.07984229312578335
-0.6185715622430752	-0.45089308435523556	-0.04020548053403511
-0.7126138870738623	0.4755018965481191	0.028960225582771386
-0.8587431154578328	-0.045886408355944416	-0.0029535181555323305
0.6693106092794703	0.5988627448203216	-0.20672646683545007
0.5975383509627662	0.21769548980690745	-0.2958528917399084
0.4858771224840495	0.6220343892720798	0.21765750839957476
0.7634082143531459	0.14977363542688188	0.14946125244715086
0.8369405524677718	-0.5127072676458867	-0.31241539407112273
0.2933928779899026	0.7958020077278042	0.1422878334550227
-0.23691379085376224	-0.8691045779267593	-0.05280691595014697
0.45493724922054185	-0.6536685500417105	0.20117398863700686
-0.7430434865449309	-0.2159734951743927	-0.09902132716408796
-0.6097278834756382	-0.3071564434021681	0.03512621420890115
0.4309717686556244	-0.286218950170835	0.06715459656789606
-0.21745101542652856	0.7311423008347173	-0.099191526524635
0.6242010193529952	-0.3631332657728993	-0.23871053453962088
0.19005484995219596	-0.888007289008377	-0.059717845611250694
0.1631931476090483	0.8588479768143027	-0.012424876303462548
-0.6055341287712196	0.3548606736805435	0.040019290367689093
-0.7337972182807506	0.27901562824370685	0.012001908654866819
-0.7460789229071827	-0.1898673809178022	-0.025315535516948935
0.4074689924831648	0.4545153784847644	0.13833007001320824
-0.05204057882662948	0.6586571298133822	0.01104439695294697
0.24990793897661004	0.5400796172874787	-0.13406704524291863
-0.7019042593377011	-0.334367079636828	0.11442499438694789
-0.7819654459572986	0.07966321210985833	-0.024292111085639
0.6088819429799343	0.35770803387887484	0.25935263557325333
0.745437423884815	-0.45558058182906497	0.14939850557672385
0.06312186646486537	0.6856902053804005	0.06835844918308975
-0.6154980394658057	-0.46029898767856325	-0.08511228681983898
0.02419323472115177	0.6948287005093993	-0.06112725957441319
-0.5106791235141896	-0.5547366772942314	0.03167717222952333
0.5366239039134159	0.3554040786863415	-0.15410636155034535
-0.5266241547485295	-0.47089052981422963	-0.06973112001750585
-0.6800982911281345	0.14221309716491187	-0.028573409389336852
0.5758193617150381	-0.7611760214812564	0.04125057349213673
0.8373640232232357	-0.3980011318260631	0.1182898638374275
-0.7191145197902806	0.2797594549777708	0.04857662616680954
0.13092174160370318	0.6395317610451231	-0.08510530473638431
0.8570757225626711	-0.4310869578850165	0.2771303887022527
-0.29483867428029015	-0.7549012679775047	-0.13876741751649507
0.2556118279005615	0.9167701650377922	0.0442656751871526
-0.35532356221887595	0.6428699002201367	0.04921776372064103
0.5002379558981758	0.06371436701110593	-0.054506570837042086
0.6332029430355252	0.047576755827039886	0.20896102558457194
-0.496384599629968	0.6696112718224208	0.08759562377199401
0.3661531250515019	-0.7032449836157221	-0.1946786469435434
-0.6482278910273602	-0.42844853924042914	-0.06185070324914624
-0.803298850628777	0.3409247319089084	0.07563504688976058
-0.6237448310850642	-0.5220135224425403	-0.023611710075362113
0.23153512180682628	-0.6963169157200859	0.192480806204555
1.0072082127352378	-0.26704569819040413	0.08900836733455324
-0.3787443949215195	-0.7285255706320636	-0.13516389871408815
-0.39829642943031085	0.7152631223828868	-0.026042453554402545
0.28957202013624156	-0.4959209162449023	0.10108059809865594
0.8497281536859955	0.45908835526674324	0.11106132232852083
0.42369576761544736	0.43826539040266477	-0.001183262452810925
-0.7966775671553873	-0.042727166403507405	0.002572949162211985
0.09376444075870069	0.8036260946778012	-0.20119878144708153
-0.3197910432261643	-0.6156352730738002	0.06180971340811309
0.6972810952070718	0.6812423567476212	0.149663779117112
-0.6567504114043999	0.0338539596104365	-0.061976782323422484
0.015175207174646675	-0.5397135070301374	-0.09592087014253076
0.1562652777403486	0.8256718065903778	0.18708873482466604
-0.3734931684226514	0.684478591612677	0.06678333442007645
-0.8587012577015842	-0.2196103416898889	0.040078626224547186
0.396963231775782	-0.6556340111658192	-0.18501357427244985
-0.4508209447032982	-0.45151751705943044	-0.03155264756236829
-0.7011614084626658	-0.2023350922485126	-0.09580823509373214
-0.13757701010138196	0.6871348111468156	-0.13324334405328903
-0.482389067406159	-0.40057885017046035	-0.11435592393284162
-0.5627628722613411	0.336334417220637	-0.10195576280746142
0.20406774189143118	-0.5654315536621369	0.055957017956163244
0.1538565384218579	-0.5071677260588733	-0.044232120642915866
-0.10740453099017044	0.6507779690831617	0.07099548806454957
-0.33231191988332026	-0.6874541760793543	0.09675813292477281
0.03337958040231645	-0.8551538752798907	0.03181420800341711
0.12049329582208859	-0.70962562511943	-0.13265909149493865
-0.13798381978896257	0.573267839085607	0.09738360152522631
-0.44057408030271594	0.6842046097450406	0.12633336846467744
-0.19543269021145784	0.8420393541699783	0.12588311715022638
-0.1962595801961267	-0.7492831894359012	-0.06442124911385176
-0.23772522724913797	-0.7150494878199227	-0.14055969408679958
0.524207462137038	-0.7692020087168437	-0.11048263081865116
-0.49581241049982744	-0.6309827564010926	0.07738948535209192
0.39845371206017527	-0.6682583711654161	-0.26588216023446726
0.15360210555384043	0.5603989254644809	-0.03341168805610492
0.9164215123553726	-0.018602166775691306	0.18319299670797617
-0.2968622989024628	-0.653790720206264	0.005874917751446683
-0.6390436708996642	-0.11242502669022554	-0.05270875396712161
-0.6803963858767816	0.3858326620030664	-0.0353410918589704
-0.1858100352965943	-0.7145175235434472	-0.0022401905229647787
-0.7502567281699493	-0.07392257426268876	0.007442698007245667
-0.671207827887049	-0.253755873148217	0.02736707176341449
0.28296207622411157	-0.6054574893097024	0.26527169179990595
-0.5426746949212956	0.470459429471397	-0.06813979645294331
-0.6854060575286366	0.36380367637167915	0.014501543056050975
0.274843353727781	0.6363851522476015	-0.22316890967432257
0.346488326432856	0.7285237912334359	-0.1112300669696043
-0.7274163314923918	0.45889338516272815	-0.0224587149422528
-0.561659559564026	0.35874086852410014	0.015073573924433651
-0.734519304467954	0.3406704674981037	-0.04423038936432897
-0.7511514152571738	0.020107589119786662	-0.0899329679718098
-0.5630492674338501	-0.44518508472402796	0.08214251488809148
-0.30952153741959976	0.5180527844294415	0.08639373098673955
0.19562048938124021	0.6705304035329294	-0.22731353333810947
-0.6344396872683866	-0.346261977581918	0.06126615894921092
-0.6039836462087679	-0.41756175158328157	-0.07275125335033591
-0.4465687868722504	0.7092189406739361	0.0724824593345286
-0.3322818381418491	-0.7114138522113522	-0.11433189898528495
-0.7259820430670394	0.32535169123626895	-0.03594981965240333
0.5152735874611664	-0.05177002300714972	0.1149023013387265
-0.7826017077411505	0.09353391018372505	0.01499360391063375
-0.7259418388099514	-0.13042147963658873	0.08090586851779268
0.768846833571016	-0.6533538930692422	-0.07267829191376704
0.2924864762575966	-0.629495769121281	0.08430573654300115
0.5043598771660401	-0.5772558973473289	-0.17078705888346507
1.044131698364547	-0.020804933825283214	0.0025212235994725857
-0.542480980609093	-0.21391580188776022	-0.0019673357826286465
-0.00044687899547380533	-0.6512614011650679	-0.13931784756241705
0.1555830339279343	0.6200800708785746	-0.08997651570032177
0.05719987268276763	0.7471597143288621	0.11372475769400485
-0.27510093954788406	-0.6365243792319134	-0.051206431763876334
-0.81495200752845	-0.10703654490682567	0.16400473482630196
-0.6018371713969798	-0.4506007198926503	0.042698119393192124
-0.5907418310876403	0.3980154332342387	0.01572195069046297
0.569405685194283	0.7708051516762859	0.06256369951744983
0.8976996642526373	-0.10586386646553789	0.3002365136112871
-0.6981738146781897	0.261192280456562	-0.03175894538079109
-0.7535141925633962	0.2873090733593488	0.016388499189603938
-0.7278233787841872	0.18038768503840263	0.0696746130498496
0.43315018591698506	0.5778917452651574	-0.17741113268411238
0.0627164667105568	-0.8371421029828848	0.19058207693778517
-0.6517049238784247	-0.31096229298597156	-0.05627294416653076
-0.6225763240212848	0.5204898504671767	0.00019202706090332491
1.0037045289216935	0.024984042350320593	0.1890174246406603
-0.49739040227123404	0.7504285078314694	0.017071085486822957
-0.5619954150398635	-0.7416937581920383	0.02252107109558605
-0.649639953054203	-0.2667033638955007	-0.004449184094804701
0.015259060031111393	-0.8394673696320121	-0.15206842946764063
-0.4735120828137093	-0.4662691531428894	0.10665858913399585
0.9825234236714347	0.06676859497692704	0.15910192326874445
-0.4605714710097803	0.4896936398970244	0.10701288632389605
-0.6896004499749679	0.20625696512382752	-0.051590469913388566
0.38845628458712733	0.1450932779555117	0.028055481939270262
0.4774360775258611	-0.2099280177242896	0.10053643123460909
0.3223219624866464	0.7744940694217444	0.23830737862938803
0.49613741199883965	-0.16610222695218355	0.10370379603656608
0.31301424678273704	-0.30854384761870124	-0.1110399770135314
0.487861534439448	0.6834557094913842	0.17764556196723055
0.43441378175763706	0.7024665469940709	-0.20234564163871133
0.5166915671286095	0.31315766800562783	0.008017042350754539
-0.7183626763971072	-0.0346678277440492	0.10034534490772799
-0.18694530918164423	-0.72155100407906	-0.054417708139109316
-0.0739319860657456	-0.7630607361831518	-0.10000125592245099
0.36324956708860434	0.4790012182589532	-0.23879202815802403
-0.670984543839442	0.39104107633841617	0.05318550321080668
0.44489180657045696	0.3270254333173442	0.11618705641436342
-0.5856770700445152	-0.5219410017754972	0.11677646371189601
1.01236826490139	-0.08670777115644791	-0.17995942130612522
0.024846376870578057	0.7563883257454732	0.13544555761307037
0.3337132686311879	0.712356037968899	-0.1498860475839217
-0.5295116342615093	0.590856352671819	0.10313675755688652
0.1107023704084337	-0.6457833896069056	-0.0778812930759106
0.5038601102212026	-0.49399036236010707	-0.14474906344434466
-0.2512142292106155	-0.67424483438422	0.06684727297552373
-0.5617034955602812	-0.4884100837197358	-0.06060163996866659
0.837751667089661	0.4243174282553557	-0.1971464268907211
-0.08626066538963802	-0.8177751314047248	0.12205369149461309
0.05424043994353053	0.950069993937965	-0.07427379086398456
0.4461698442563963	0.13398663134886196	-0.03399481955984035
0.48009259722179454	0.2038498746820105	-0.14272618201811144
-0.7080430862066355	-0.044436006149168955	-0.10909286304419076
-0.6963365905759659	-0.42932237457128203	-0.14529598118463774
-0.5350728868204936	0.4528829583426558	0.1035957131180561
-0.5466091195493478	0.18114818354865406	-0.04457256223141805
0.986663046536715	-0.03781143188690313	0.12493420508662621
0.1797572614059548	0.5983481592220841	-0.12581591156133942
-0.5508105129654799	-0.4672162400315007	-0.10438396059000414
-0.7198488964075709	0.3870146132908074	-0.05699073373081438
0.5926345810554905	-0.5320405559760146	0.14875634363191784
0.8464740882271498	-0.266043027431818	-0.20752992918006596
0.05065346193121499	-0.843562808449871	-0.08603974471445683
0.6171717602322488	0.03599362379858302	-0.1394200014020135
0.8460146836066059	-0.21049211782141058	0.23607782403368685
-0.5674045809008543	-0.43282341773647887	0.07085834620946581
0.37369177135324533	-0.3601634052904867	0.03943040020702345
0.6328596650352587	-0.5254045240139239	-0.11617564521467473
-0.7787027823122262	-0.12753885453396935	-0.02678510372520924
-0.4695564372336301	-0.6072392166208658	0.0758245367653372
0.8021819887388559	0.28319259996805257	-0.21605303234163692
0.5016044097522793	-0.42425093646572737	0.19681023796663744
-0.514150263219053	-0.27844783117326705	-0.055621555150579496
0.3577403980032434	0.5756996621028453	-0.11255893680479806
0.46160368108115823	-0.502828724725772	0.16810999961176556
0.5668242707998086	0.264536382316549	-0.05867669792486874
-0.7301957855348336	-0.07941230509768864	0.020158165837364662
-0.1929777074876399	-0.7042586954614944	-0.18780768012446525
-0.5243124897347776	0.5001434756653	-0.050177056511645064
-0.8246546409053507	-0.11869036536253813	-0.010291234381295651
-0.8304252320738632	0.25175360500442096	0.03711181646070018
0.13067006917700935	0.6640874077043931	-0.14722817469710764
0.1289444989656088	0.6509280273679267	0.08359379453527473
-0.38036035251278294	0.7756184347145243	-0.10140334432643028
-0.7719611891862665	-0.10757487106021868	-0.04788794363690209
0.6519793893106659	-0.1634230095243082	0.22380409582840885
-0.0016479385032208693	0.8569384793669722	-0.055536791392217115
0.5606619042448425	0.6336695503110319	-0.17914229539999432
-0.8727932338934584	0.06914885762970319	-0.11650662824737675
-0.22833928814487164	0.6140648591663986	-0.12284494472937896
0.5240902998130672	-0.257553578408119	-0.16544958724222494
0.6119586797113988	-0.07169013096794494	0.13054088644117193
-0.1389234967708449	-0.822829113352334	-0.08700203832786087
0.3357296597300152	0.4851552710317213	-0.11861311368855874
-0.4720245877581631	0.6017391229198056	0.030721538570097656
0.7739729393183531	-0.34698507076167784	0.28797852235435945
-0.4984211568706747	-0.46947287081734534	-0.05121694339989434
-0.7005971360018474	0.1742316559303596	0.0409242222849607
0.11134698612047816	0.6543079667386136	0.11342774120885007
0.7451059710685516	-0.6886209667816138	-0.12565233682411464
0.6214282192335308	-0.3077703412011561	-0.3203986796103172
-0.08982975578929213	0.7546492878921449	-0.07245122444227511
-0.7828042861857544	-0.21258903677816957	0.03176950968579103
0.654539089427199	-0.4761651371549594	0.35917954875372465
0.39603064461865106	0.40685224827138355	-0.14791159245367613
-0.022758120812882074	-0.7315452514964453	0.1575197313283297
0.8310272082306885	0.3425559936351935	0.1292644139323475
-0.3143943638568556	-0.7111187994135708	-0.02782451020005871
0.7334941900522692	0.13814929846915497	0.23250387205916903
-0.7526220324155503	-0.265948893229239	0.009430401859471058
0.1362754683162727	-0.6547050839817266	0.10035547386505149
-0.7811216956030284	0.21177275630319636	0.0230010097799679
-0.26156506147303216	-0.8729142289987835	-0.05629384181362603
-0.4410619819347938	-0.7990376424041448	0.09371067480199483
-0.6271377604127114	0.25055946225202924	-0.012189644717757603
-0.7296911519591688	0.12434185356944802	-0.05405286944191713
0.05206541582944464	0.7858198931717517	0.04837435115624736
0.27045717970663347	-0.7374529513185192	0.22249262819549234
-0.45085688233878	0.5272927782523648	0.01686767539366521
-0.5280279749462522	-0.719172955070742	-0.044486329986842224
0.8181744221561422	-0.41411396613038454	-0.13359481819462704
0.5693244064452956	0.4370565998019638	-0.21657851860348748
0.3978888708302933	-0.42467540143048466	-0.17452873403576957
-0.005136165856315211	-0.7993854305061515	-0.0046512796866422235
0.20066415066302215	0.8671493406088595	-0.014425366878461077
-0.7365760358326975	0.3192493924906589	-0.03853278641051621
0.6539356354924258	0.03770589612667875	0.1124645174905329
-0.7583747875462454	-0.016278124155487742	-0.1080472856986639
0.1473639672634343	-0.5738907663578652	-0.08921301680273881
0.7919456879201732	0.4135775395493291	0.018077665201973705
0.4319161389075938	-0.3430255238034894	-0.09956785080531566
0.6498766564977926	0.2856063250776579	0.1887815030723941
-0.3684652477907573	-0.657276554976872	-0.09622790255643388
0.429437126646083	0.49568772346476075	-0.12105792132399265
0.8435297289305693	-0.38755392413148654	0.10544311444011337
-0.6152613946159757	-0.20646743857312416	0.014544624333961814
0.2595143058959733	0.6996068179175499	0.201454650575667
-0.06042799684200604	-0.9699713742557259	0.0818369417534775
0.12598252146794278	-0.8465829352407294	0.13863885921944857
-0.6812847030427742	0.24268888555477713	-0.013776496130892775
-0.06832917635159465	-0.9035446398409118	0.04866456108863504
0.30498474045099283	-0.9816891080457606	0.035019038531315015
0.12961755648983528	0.7421262351041135	0.1741855097295159
-0.6022352329062266	-0.5497510192279211	-0.05859763047482463
-0.4370442382177523	0.5177723787898506	0.01198452739516298
0.3992532220055895	0.7813854565522936	-0.17463198497353624
-0.4965425034465825	-0.6202346350632646	0.06175682067986253
-0.6159614575521016	0.17470869519079402	0.045859313690151324
0.510778308542503	-0.3685985998854171	0.09301732528115667
-0.7739825546819962	0.039786806392712024	-0.038463344577693064
-0.3918239977464073	-0.5974297406056274	0.1051346786603443
-0.2895722890595145	0.5853099698273718	0.09693599954038577
0.43767585633466843	-0.7406717473108604	0.1659277348030701
-0.23276814460154685	-0.7082985637618652	0.045243796166145406
0.93700808373585	0.20179152422196434	0.015978094956085938
0.8634577999396094	-0.550386120334934	-0.09265635079726417
0.37403520935171647	-0.6077715885818028	-0.14644827328339272
0.47140819400140543	0.4490707034569054	-0.15268211909944956
-0.14492223072241778	0.616692007999569	0.04521525079627343
0.6489844116176035	-0.21565613666460978	-0.2851677247347952
0.060125886147891855	0.6276806791588295	0.17845797122449059
0.5341486851394288	-0.592506386356117	0.17387186608601074
-0.751393981784531	-0.1966580780157518	0.07041250068928848
0.42405741839864514	-0.6538628852064491	0.25270110013947644
0.9707956144126112	-0.4225854976010325	-0.1372620157783651
-0.42720684381697765	0.8071156597508407	0.12603406910844195
0.832963804738501	0.36898849985245413	0.21041885957957365
-0.028237228344778584	0.8356705908500263	-0.1908947814632325
-0.5235392504969412	0.450294982104141	-0.011783553456263827
0.3199164979909011	-0.7028429129176079	0.2796934278801567
0.6122679782901718	0.6550334515283777	-0.1042848858192179
-0.39931790913459164	-0.7571336201849259	-0.015465670692509939
0.18188255035629497	-0.6568024113015095	-0.07428981345377535
0.563665506625858	0.41506906091880746	0.1774188811381126
-0.4133999234192904	-0.5372297358335516	-0.022010966884176267
-0.5945613370342292	0.5377932812415658	-0.08070210670855546
-0.35716061945273625	0.6808132496300094	-0.14763978994382182
0.20174356047856523	-0.9784210827381045	0.11223492211992278
-0.5556123279289344	0.39348375023730614	0.06125789166976977
-0.25774518147235703	-0.8535870879197641	-0.11099045274749825
-0.47693305602475977	0.43650420420637354	0.00021957269384105874
0.8022791513479229	-0.448271728054095	-0.21577268543079398
0.6736116763222776	-0.19934073142642086	-0.2561502774795543
-0.7251531385892219	-0.48388274111138097	0.05324852005673836
-0.5092129760054753	0.5124117482503117	0.032365068337215655
-0.16449651005749594	-0.6353253879557761	-0.1064574298801199
-0.6732974870465269	0.10215706592446913	0.05337735529025031
-0.25087272497710644	-0.6198835961348823	0.06982383950012339
-0.6013799855113897	-0.6156256440503002	-0.01914347228525303
-0.47374467746864496	-0.7284436044711228	0.018061849091774156
0.6604871884324406	0.6175984921306404	0.21949758028188993
-0.20114848912456973	-0.9364348754405336	-0.013864690580428841
0.5835841656885113	0.06455794195419225	-0.056348024104747915
0.712772715218845	-0.16580327363319805	0.28607838592980495
0.6101498894306139	-0.7295785868227532	0.20955816998734977
0.37545144901018934	0.6877281028490968	-0.14345592493861287
0.700014013899315	-0.24273353770294703	-0.16548121689126297
0.7118845190602598	0.6512297407172488	0.21391058329880352
-0.8313877821574951	0.420765088978454	-0.0025664137674475257
-0.6159936904990666	-0.49390066552692913	0.09136464783121873
0.5925358705389869	-0.2784934197496578	0.21347860879796166
-0.53582980427573	-0.41618576288118014	0.009992627056877333
0.5889947187639037	-0.42443754764150476	-0.16813746398980184
-0.6142781436982614	-0.45766730722395826	0.05182628199146559
-0.7053118476365717	0.5127708304594125	0.0818346649147093
0.28069830076991464	0.6001828084310249	-0.0839716440309791
-0.8801117768308584	-0.07212495841260962	0.06730106477800998
0.4986000972040638	0.28395213892736054	0.20766873488897686
0.5027835660966136	-0.10608635425490426	-0.08204490800859142
0.5971982681856144	-0.2883070371491712	-0.16989057378883346
0.009725570330160187	-0.606267548335429	-0.27091773267570274
-0.27396385854462885	-0.6664763071729547	0.12007310570292153
-0.4829788714201808	-0.5599653320948783	-0.03670202981013037
0.17268099806671824	0.7168145038561731	-0.09583485334972457
0.6496350686972665	0.29939304176559456	-0.2136112035946223
-0.00946191050830883	-0.882638381079522	-0.10931649335990781
0.7958516941197935	0.08250910062318818	-0.2758404592429809
-0.5423891555414408	0.5312988503364683	-0.14650885743453668
-0.7126731705099256	0.10868162368072998	-0.03310863325233616
0.24723793176031109	0.6305930852457404	-0.18939912576729426
0.44380418040053193	-0.36080384139130844	-0.09113886090457253
0.5173090887601769	0.7993927396261643	0.04680379772108593
0.3026517903070262	0.5418546876683129	-0.2051222339989326
0.10564809306324616	0.6280649940635351	0.1677520103427485
-0.7021819828975208	0.40737791289395503	0.02934743564847235
-0.5057802920014578	-0.5404934382265836	0.1550289165867071
0.46141843071385896	-0.750902561014386	0.11545895674842045
0.5914824998264899	-0.31189294330282386	-0.14943636260049814
-0.10945935094611081	0.8943783699369593	-0.03739689193499363
0.8525469549421498	-0.5785123171818168	-0.17525973112530696
0.5746151525682993	0.04940455307475369	0.15094077230879693
0.45614245201996223	-0.34392294660303013	-0.03989010274694809
0.7844885390835002	0.4283638591945839	0.2541229881352159
0.48789390183670733	-0.16149634538478153	0.15069377714026122
-0.7336803524302157	0.27216431436996447	0.062339028593406696
-0.6018381426746712	-0.5227821867405208	0.0024074061063919863
-0.5198659239770392	-0.5405637373444399	0.09747586712908349
-0.12761732197129308	0.5813540182394665	-0.09658457605072364
-0.48932901056988765	-0.4299206578547044	0.033799963131162236
0.28216611074130155	0.47143084397224794	-0.062215638669411974
-0.43304589795418746	-0.6986715911065843	0.0992001110001655
0.3930188488038641	0.4078922429219637	0.03896612264192104
-0.6443523327612833	0.378709401858189	0.04361815548787677
0.7238211097661124	0.3833928732600396	0.1643494275398994
0.5346493595955781	0.4052185409643757	-0.30623421284358526
-0.5442395229470738	-0.6237501006705986	-0.07870437188322506
0.5078702329926801	0.6110997575464785	0.30070241957346283
0.3298908557086999	0.6220608797219807	-0.22420789235586022
0.618988003376612	0.7678458481468743	0.3213827410360228
0.5024312074632347	0.21652458348751355	0.18548191312210366
0.07316199701775038	-0.7758953788344034	-0.15941840629155893
-0.5610355192287394	0.5763152866560215	0.16987790953349396
-0.4508841143825685	-0.48954458088005537	0.03095036132404102
0.6485147792072017	0.17313152985346675	-0.18826972223621052
0.8201614506031606	-0.3050008732891213	0.23662818113387182
-0.06280027137682284	0.6608736973117004	-0.047847600100427545
-0.399655790682011	-0.6611335565704596	-0.09903085861532462
-0.49572726322257465	-0.37835800560621546	0.011202426300219379
-0.10472979972572485	-0.9476850769613954	-0.01618688318535011
0.7397338766175685	-0.24957994858441185	0.22697419446260644
-0.677589392814937	0.1192882057738738	0.030200180546886835
0.7640974641111776	-0.4543435586262545	0.2500074047411325
-0.6329137293311169	-0.5531168044528287	0.023722173508732777
-0.7234030626624031	0.21071569326542616	0.006069520170463659
0.5175953452890312	0.6246435094514784	0.08481598308768701
-0.5455622149625149	-0.4582969732945678	0.10685060696328608
0.06263939366529968	-0.8195641372644961	0.07250268672949792
0.8532203525722392	0.032640567570115665	-0.27931907287542246
0.9828560493280879	-0.010400404967156239	-0.08278160653967108
0.06039839975463646	-0.5975014719901707	0.21078492554666867
-0.1770707222945674	-0.7460433306287392	-0.1306136960782506
-0.6161234075139024	0.5371909974674114	0.01947685603556843
-0.7803063790140093	0.07429647941033804	-0.02521942002465494
-0.6790974718076037	-0.5484899806621717	0.08765527832762919
-0.755934831673369	-0.06517403274086148	0.12793543940357818
-0.3804274370965463	-0.6044988184229915	-0.06314513553601425
-0.6312372478770593	-0.35405577781236586	-0.005254252397890527
-0.7373298359306849	0.32712942143564033	-0.0786238339661594
0.7606961142526596	0.20331969267785835	-0.30068483978459454
-0.704021347034926	-0.26247288432990634	0.10541083941047429
0.31375315914223023	-0.6495024163996637	0.23879011962978203
0.6050581136404379	-0.02404671528188111	-0.22884220119919713
-0.5728563776801892	-0.5770089326452769	0.11970729852017427
0.7932168428070784	-0.11296607606694634	-0.21746564358393336
0.37188092938906153	0.5502236223075969	-0.04322755696633451
-0.4464863673951966	0.49428808817089803	-0.06671266286952783
-0.4588854276309861	-0.6433707342956201	0.07380566126316951
