-0.7114494392167038	0.16444257359764464	0.04350882319873433	-0.5931145955467152	0.08506986583066092	0.8006111381170072
-0.517119224459145	0.4058988294732392	0.05790372992371108	0.33494858086144175	-0.47881669422081624	0.811507252903112
-0.1323084599034404	-0.5707222176270569	-0.05877758165971356	0.01655389506672353	0.8833278128148416	-0.46846338561926926
-0.03170204939620147	0.5653712628567725	-0.06772809739462696	-0.12303918924788529	-0.8876579530676607	-0.4437620040798374
-0.6489776447582115	-0.2044040300122059	0.04860465697946819	0.3493099185913111	0.22197146614482466	0.9103357891411546
-0.34644297266120533	-0.574629485743853	-0.09603746364615132	0.07911422125018247	0.4341044319551434	-0.8973819042931939
0.48993448399497186	-0.5928519146564677	0.20013522522521673	0.12007285966954392	-0.30129571582522874	0.9459404843837382
0.22942802602958823	0.8319351363540471	-0.06190004340570699	0.15286810326714384	0.9301741333141379	-0.33377750780542226
0.3657211115623129	0.4557798743686785	-0.18165623537334846	-0.5329276521926543	-0.3275777584438169	-0.7801800623582673
-0.5797141564060755	0.44680527077743326	-0.05536834241877048	-0.4179620621332986	0.17555488704175726	-0.8913406735098746
-0.6735401414488262	0.1332109665694482	0.05526007627068641	0.13064412443230344	-0.10068757627425806	0.9863032620524645
0.45996547206001787	-0.7654467025713124	0.057548678335234166	0.41760458509835996	-0.859431822884528	0.29492940226129405
-0.6981010967819222	-0.19143090175811772	-0.049412705927357435	-0.4735514806198239	-0.03704348679960248	-0.8799868040422543
0.5335636688707879	0.1427280982916602	0.19803521966502896	-0.5998651883597572	-0.1089756536696252	0.7926449789794872
0.4431850267847592	0.023895150245083062	-0.05485748664818271	-0.9761652356178034	-0.055395547491442446	-0.2098398581999162
-0.0945378163330657	-0.8255480220446608	-0.007018107811938143	-0.2504613405070753	-0.9552366234886539	-0.15745510489468084
0.4858930947470346	-0.42378307234787715	-0.21766613181796263	-0.2447974112198968	0.1501824966798934	-0.9578723532658358
0.9319974595212387	0.08957487409614401	0.08729064395246383	0.9293923434597451	0.1120042305632808	0.35168867518635083
0.038651539755586946	0.7268257117783397	-0.1531371176556927	-0.13111918317529997	0.1535974016660181	-0.9793955268454572
-0.40681317890555857	0.47001458022155607	0.03182254336124473	0.5201580745824893	-0.7695096814143606	0.3705272293046848
-0.61594397007437	0.45614296294121054	0.020762111527917883	-0.8430363501870622	0.47891549566642483	0.24480535180804494
0.7900113841877693	0.14789312318221454	-0.22343714400775128	0.4284789157073939	0.11430313347036533	-0.896292704685848
0.7884914424910819	-0.17786633877766705	0.2327130460847917	0.3804744140949904	-0.09368020101443522	0.9200343690085542
0.5308886072118819	0.7302878317353403	0.005214085544781416	0.5135507484433494	0.8580312050767789	-0.006933966236364775
-0.1841609838272793	0.7195495118514722	-0.11525183612092299	-0.26453951970595413	0.3274750820524249	-0.9070716141234384
-0.6484471860488844	0.04705459644575261	0.01280492650520274	0.9751133448646556	-0.0355695625553564	0.21883503121411918
0.25218641489384064	0.441353202440979	0.02467306437870427	-0.5372253967123278	-0.8351781816458969	0.11775516137280544
0.4672296601781654	0.6235028716308485	-0.19664002679881218	0.17743500874376517	0.33394285646267247	-0.9257423973706995
-0.17847119659477487	0.565589119174337	-0.023202658092705983	0.12363431090566218	-0.9720862234344386	-0.1994064476787373
-0.5004719116859742	0.5806271056938307	0.04352191954310648	-0.632693403929181	0.5972467568845962	0.4929456035054367
-0.4028120624042787	0.4771160996631209	-0.031033946920737097	0.6006824764029479	-0.766461409803145	-0.22741475287456056
-0.2148502886285133	-0.5468360974865656	0.004157839520131982	0.01908583625260795	0.9988777222952451	0.04334774223418629
-0.39922355201420257	-0.5782317999304308	0.09676701397653868	-0.08300388339504781	0.1396738722620519	0.986712503593962
-0.18931492516492862	-0.7177863735569615	0.11781065804196883	-0.254356807358033	-0.3536274549074487	0.9001390102013738
-0.6540765557361528	0.04791415573918061	-0.026198949501055085	0.8052119425147067	-0.15453493131572757	-0.572496884388846
0.6740687689983637	-0.25544235991573727	0.2413829325053576	0.08965041338569213	-0.09802047269229257	0.9911381287756782
0.702902420016659	0.591418524189149	0.05560755848745684	0.6614676570734714	0.6794468338928132	0.31750990308770655
0.7719462059535444	0.388337134867356	0.18015572446834127	0.5859932560339116	0.4053418528764753	0.7016479788251657
-0.6759696005162498	-0.3666353525961206	-0.002165354558623699	-0.8700483782137104	-0.4757694971527489	0.12907054329595408
-0.5096967167828887	0.371744214090801	-0.0034649690381929003	0.7667575210000035	-0.6403504870200087	-0.045101638142846956
0.09456984866655925	0.8058343902088076	0.11560277252396989	-0.000347464572337447	0.6857151844437331	0.7278698819786871
-0.3770413058164649	-0.5302280718506317	0.08275279327450503	0.19164713452616938	0.41496075494309814	0.8894261901276361
0.6076562131470471	-0.6494562186313407	0.10531824033759053	0.5417279750117993	-0.6992911504599438	0.46639327608577696
0.4563275467475916	-0.767447347723484	-0.0664480318384048	0.42992196153176404	-0.8534995330785843	-0.2944582381719324
0.1723308354885676	0.48829241860499717	-0.033759772588453	-0.5465664876451509	-0.793435690866932	-0.2678150089926956
-0.10391184075119886	-0.7206666320239884	0.13607505502375525	-0.13258267092807907	-0.18442483233323131	0.9738630892422382
0.45731421328862665	-0.25916523596941954	0.1579218388665818	-0.688011862179616	0.29347851716899503	0.663709301923986
-0.5424896086030506	-0.38344060272569713	0.05948707507133528	0.31182499301701483	0.26777392377600734	0.9116261840664404
-0.03854080092042656	-0.5800258471044785	0.08119749819767273	-0.10049858329722738	0.8195249026692921	0.5641621829404548
0.8011300572749056	0.4385846048334437	0.1178690140284259	0.742405215579439	0.469609839478492	0.47780863799792433
0.44776436954851856	-0.3071781551312972	-0.17149006005354406	-0.6125094999641124	0.3294972645268612	-0.718514902505876
-0.710746957241931	-0.21478590576663312	0.03172705473391991	-0.7709792234997739	-0.22981280307222424	0.5939504293085178
0.46605396452210085	-0.19938423563489693	-0.15994398943267701	-0.7257996029811626	0.2221522581611326	-0.6510478557727499
-0.6687809874946873	-0.3143393820513421	0.04489781764600696	-0.5610481782241715	-0.15790546146098988	0.8125828000592497
0.776321153404215	0.4746630914079231	0.1121196498912147	0.749741734910901	0.5193122963785661	0.4101244564309864
-0.6404245986426516	-0.13919060742756337	-0.024557102007892195	0.8383848176397296	0.1953878933053975	-0.5088560392693361
0.9423982545731193	0.1646639511100723	-0.03454148053279649	0.982489717920085	0.16194252900240091	-0.09213344388232356
0.4374763004558845	0.6545904903289169	-0.18774454239673763	0.11152914446134049	0.38634996186912973	-0.9155844892195603
0.754522032142848	0.3943234866376816	0.18523248926415734	0.569496691822109	0.4264642407070278	0.7027103026154177
-0.46513902757862613	0.6394352565469312	-0.006470645237127507	-0.6709133735101451	0.7392933473178582	-0.05762457684698355
0.02621031021499661	-0.7751428397658213	-0.14028851875979956	-0.07427788426783896	-0.40041469742153357	-0.913318600488085
0.5187847021750297	-0.1938500201191511	-0.18866691514194073	-0.5352247136084128	0.12622532795836178	-0.8352255219547572
0.20738712564216075	-0.4739066332282099	-0.05257444402847484	-0.5448636031742286	0.7919915215290259	-0.27545069207053174
0.1054174794831523	0.6098133329812014	-0.14616731453772755	-0.18652932208295714	-0.4494875244146801	-0.8735947443745498
0.4408955600940704	0.4951838790679384	0.21455086147940644	-0.20230575806490844	-0.09982135763831333	0.9742217800957982
-0.7280038279285563	-0.12612690101914076	0.033898178013063364	-0.6307415152214406	-0.12042566466939043	0.7665916776649072
0.8090284469395768	0.46860130297584907	-0.0025837077723866253	0.8469550575978649	0.5300663958528716	0.04119158162713557
-0.1443522378961426	0.6115298995176185	-0.10894616517680994	-0.13071836578775026	-0.522116653899227	-0.842797074370133
0.7518296908860171	0.29808311469999027	-0.2170218168418237	0.38593264363996377	0.21742359684174795	-0.8965394436997546
-0.05116573503513907	-0.8355641703290703	-0.014712173324552926	-0.14730221396159973	-0.9712640420697765	-0.1869444258176493
0.03385767057350964	-0.5955225371333087	0.10726116929609801	-0.2123451501169623	0.6713253612713227	0.7100928083960097
-0.5102952024373317	0.4312437752249134	-0.06608502672001054	0.3144388280664658	-0.3045892010821535	-0.8990848914247881
0.27108962541201753	-0.45548187142223606	-0.1130685639670456	-0.5651311323125574	0.6136502173266587	-0.5514165522235186
-0.5903820992607202	-0.41395291722849553	-0.06942710761270826	-0.3462092917598474	-0.06425037667150435	-0.9359546011408428
-0.5413808744104629	-0.5377150374633228	-0.061956996113485714	-0.4424486428187561	-0.41267774921674416	-0.7962011515749287
-0.12514787306515876	-0.7810327010534481	-0.0754910063100249	-0.38696067246074073	-0.7076756434309128	-0.5911485614152961
-0.00014821484125412954	0.540541252036329	0.005921520280839107	-0.1391472771795499	-0.9870327993858447	0.08002679669998741
0.7227094285612012	0.21278196741555006	-0.2435043488963337	0.1976928086449416	0.09718965695634038	-0.9754341207845785
-0.09697576161824105	-0.8166486932673203	0.06202732033230539	-0.23460096541032366	-0.8702861271485304	0.43308710893001207
0.10780780283587782	0.5698589338659299	0.11671551719341505	-0.3123945485906556	-0.6506074219780829	0.6921846780143813
-0.7115966641484396	-0.0738341269297847	0.050417620017298465	-0.2822802016810976	-0.015263746687355804	0.9592105638367121
-0.4611628670057162	-0.452775573856711	0.06963190158009978	0.3930356391839851	0.609316529176442	0.6886627284844236
-0.1313349010050237	-0.7135898153465338	0.1337630130251082	-0.16108302048748058	-0.18459891468038828	0.9695233371144045
-0.17431482992050062	0.6846061112692419	0.13140614965839764	-0.18284072974468327	-0.014187486079267647	0.9830401735357419
-0.6745461771062824	-0.12008504674169945	-0.05117477683056657	0.3914048960411498	0.09046703131761605	-0.9157608441070159
-0.1920288513684823	-0.6861177695671863	-0.12285223845967949	-0.18436583237952636	-0.011847921705808298	-0.9827862771743693
-0.6345427110788319	0.16015880510794037	-0.027280334432795435	0.8125093940534935	-0.30810678305115796	-0.49487240255715614
0.9316322130704174	-0.12954916259453886	-0.0413597506231189	0.9844786223726766	-0.0992149387585247	-0.1447696032264324
0.4458146582378275	-0.3000072628930431	0.16877675170188322	-0.6111654454600812	0.29255498216739195	0.7354511409227779
-0.6899103787911683	0.08692935615408344	0.047902623127791186	0.10859481953452793	-0.1147641630257068	0.9874392903137249
-0.7359681052646214	0.19207463036056213	-0.0010872863532485778	-0.9620831238272508	0.27120210855698734	0.029077124359924413
-0.564843892630899	0.2975728767463922	0.0181054162275384	0.8292514756600755	-0.5078021808051376	0.23340723057594862
0.7463101034782439	0.3216597926134914	0.21115610844780575	0.4744719097811444	0.2380967261724534	0.8474587634891698
-0.5148231433563264	-0.39963863327235305	-0.042213169949459894	0.500236906623373	0.505612543378366	-0.702935980890393
0.13644168682719832	0.6300293473938132	0.16290615252438068	-0.24824538267126728	-0.2992930125689346	0.9213022970826714
-0.7056168118000092	0.2516404390335838	0.02691279464200906	-0.8771854794058914	0.2181539396696403	0.42773180069533157
-0.46087390901585507	-0.4521242995604539	0.07652282928594872	0.26545452280138987	0.46875440764137266	0.8424981908829663
0.3466042129378029	-0.33269318117530633	0.03456768788853194	-0.8117819543872611	0.5767553674067798	0.09145110550818386
0.16389261285814727	0.7927172070639383	0.12792909312171452	0.009725714546472197	0.6898485324047159	0.723888398039104
-0.5664432403334934	-0.4149648683930878	0.07415525772644391	-0.12132114937921941	0.1055001757958002	0.9869908265127697
0.21131767877765728	0.8460781681123297	0.008293963263851912	0.19593326293643892	0.9806049961033925	-0.004898784762119926
-0.13942865514185016	-0.818171676638035	0.00984673968793208	-0.3178736625413733	-0.9479227458912816	0.019970039671118336
0.47215504104120554	0.4951829096250306	-0.2279178511650086	-0.13851031435951622	0.03484333892895358	-0.9897478641291988
0.45023100400442284	-0.09155832782002876	0.06477060500773656	-0.9418560588023991	0.15268525839786534	0.2993231971718692
0.8331362688362268	0.3511255884482501	0.10013658532945971	0.8190496270092985	0.3934324662408121	0.41757466757886585
-0.23370078597200086	-0.6604059083418807	-0.12097454842372234	-0.20260216949093945	-0.10237656843258736	-0.9738949631010171
0.4832039912209954	-0.11988192914555608	0.1413874581330398	-0.8183111119410261	0.17795735680825786	0.5465328016063269
0.15455649912058403	0.6253659368042823	-0.16669365635795869	-0.10671095195821091	-0.21572967788691538	-0.9706046975009853
-0.4374079710923288	-0.43725769337647485	-0.011860678706034678	0.5416192387790213	0.8334253494161814	-0.10977607724340314
-0.6241434638312822	0.31028983011254824	-0.06455024461080418	0.053708538197717544	-0.14084379296914964	-0.988573931937681
0.8295535682787094	0.38073514045839907	0.08724475524695291	0.8050321725729523	0.43672559283963275	0.40148967319389883
0.4487424282440714	-0.053487439695757054	-0.026373000310096047	-0.9802463333667919	0.14493749172402381	-0.1345743267258259
0.8840106598241171	0.007964237634095974	0.167511711121572	0.7442934072622933	0.016365263741140862	0.6676522313664273
-0.7303683261389776	0.0004990373751383183	-0.04347895039504207	-0.5929279425065948	-0.05476007063555771	-0.803391429913765
0.7971637596167274	0.22768570382956088	-0.2098198665695237	0.5133246509018574	0.1908217723280503	-0.8367107349508955
-0.5573019533045425	0.5248560031190321	0.045445385791153425	-0.7107893822264743	0.47954851711025726	0.5145985560137735
0.116245939939056	0.8451615506349935	-0.0052504589952629055	0.06175700192524691	0.9955885258622454	-0.0706368167788314
-0.7314254170503567	-0.02970011836325142	0.03756557412580051	-0.6757603465910369	-0.03903852167022881	0.7360869159283883
0.029368326193712553	0.6153070555345648	-0.1466953697646137	-0.2059391720324989	-0.41041009584651955	-0.8883426200795621
0.26557103824987827	-0.6475202158929205	0.19012544463958947	-0.10581467034810321	0.000940978315120208	0.994385423313784
-0.6711918241537383	0.14999411145317887	0.05037067607332092	0.19819131121254835	-0.12771091582872154	0.9718076590241705
0.6441330391955644	0.60386829397119	-0.1255851074211829	0.5120292410419908	0.6414268692787704	-0.5713121980889253
0.7154262420919655	0.5413666222269095	0.09535354473989867	0.679023388337374	0.5735308956211076	0.45824616731499496
0.4751400037673686	-0.2209919241123376	0.16483084408421167	-0.6856404879198581	0.2280421658511234	0.6912986994917235
0.3622291111258776	-0.8131046075431559	-0.006726827483531855	0.35001759146037403	-0.9362612690567307	-0.030041999476725617
-0.3974748031968918	-0.679785475974595	0.04754383080589263	-0.5097672641598746	-0.7193064096392441	0.4719487529836869
0.10015472279246458	0.5387069256108937	-0.09111961302861837	-0.4932224570763685	-0.7034523346701442	-0.5117483958769902
0.5915451825961718	-0.6962218761350945	0.004625555073066404	0.5528599590419723	-0.833087920971566	0.017617650790685724
0.6636816304220756	-0.13045522311441135	0.25059003341272995	-0.06141302447737672	-0.006658298930217395	0.9980902301294695
0.6053494854946095	-0.31354668088363313	0.2327915371825877	-0.12960863187146554	-0.01490323092304835	0.9914532244399945
-0.6511167056539705	0.1864279066825497	0.05580212720851266	0.26415247121697033	-0.06198942098735852	0.9624867706288851
0.1111147720904364	-0.7603735296779829	0.1445322008475473	-0.06869791006000109	-0.46845959855706487	0.8808099691040865
0.05340166199815988	0.5437805732468457	0.044378232735428055	-0.2931133810423074	-0.9460022146454422	0.1384353847102167
0.004536564746156352	0.7803631161843605	-0.1310094490104528	-0.13045663970618093	0.5024642497266019	-0.8546992119472521
-0.020861161561188717	0.8310854133868469	0.07934363239702402	-0.11239680135034749	0.8670499099564678	0.48537759805196135
-0.5063320320962423	-0.5043188499497129	-0.07032779495103285	-0.21129271087058898	-0.04932522359584487	-0.9761774493657278
0.7069742836291659	0.160622859415517	-0.2513973027551469	0.09830717346924707	0.05646532254820966	-0.9935529009539523
-0.6313842727174157	-0.391068272988221	0.04880677359216174	-0.5783931425912723	-0.3120442582126205	0.7537172901824182
-0.013768533314795649	-0.6913360596374448	-0.14599086408545273	-0.208991536409324	-0.005264981271430741	-0.9779032762402842
-0.7193961003792778	0.19066412234543265	-0.034200925355398204	-0.7912543894441856	0.16006011308154677	-0.5901671385172433
0.4099701107648917	-0.2277392380261436	0.04326545587405654	-0.90127226753131	0.3975815029792482	0.1721547218862532
0.3693294532634517	-0.8033232111581305	0.03458994011346628	0.3352775384627347	-0.9329861165256931	0.13086588009361222
-0.5734031363176684	0.37623134986444845	-0.06322683309136184	0.1264438315708216	-0.28618273966629226	-0.9497954500705849
-0.5565013665463986	-0.5304442752564653	-0.026788411858963874	-0.7521379335872754	-0.5877552748096745	-0.2980474220530465
-0.4741635577731295	-0.5745787865012775	0.07340870864123283	-0.40981962758984614	-0.3896976703407483	0.8247324405970173
-0.6262938477993528	-0.20779948562598605	-0.010168505322335774	0.8619309608934231	0.4815287561575489	-0.15876106464339623
0.21412317639440476	0.5878253673552131	-0.17534587454091313	-0.35440573733483277	-0.26314525795900146	-0.8973021489764995
-0.7014156050545048	-0.2114308786409373	-0.03882371172545825	-0.6315405457299956	-0.05782305698494011	-0.77318369950483
0.13249808513132708	0.5120452056765517	0.04874870214550537	-0.4231630817159432	-0.8733269679002498	0.2413151744313277
0.4140152857394736	-0.3264486867627832	0.14895500103196438	-0.678548451289268	0.3539794417080392	0.6436385275144737
-0.43673650889166615	-0.44737722576579536	-0.030562914381833922	0.5167449965985579	0.6593485655350872	-0.5461081189811947
-0.3119264359212617	0.6816319636723268	-0.09976445865543954	-0.3455427236607648	0.2824314537839855	-0.8948925634055553
-0.7302450421059586	0.18745380810994638	-0.014234328629675943	-0.9030141267411738	0.2705867849609002	-0.33368889509601574
0.31031242858837793	0.551945778010494	0.18561610614672547	-0.3248271180120417	-0.23377196931164101	0.9164267618135928
0.4458994598269334	-0.3836391490778566	0.19655106199996972	-0.43309347625745503	0.27188953906327673	0.8593637875610026
0.09082863215847993	-0.5497388865761833	-0.08486342038474963	-0.3241121960692872	0.7867010934316211	-0.5254071506485568
-0.4943265947398193	0.604259680001896	-0.03366947200133244	-0.7249000636689779	0.5446627608521106	-0.421737328954491
0.8905738059064625	0.1841975817228289	0.1188623902236274	0.8506316896259266	0.1720807188968773	0.4968037387017883
-0.5515048306882933	-0.3332447426000996	-0.031933775717944896	0.6861719868230332	0.5952995487456822	-0.41807469639111056
-0.4460714432543864	-0.49244613885752897	0.08043092225503827	0.12190256301173061	0.2658284395596187	0.9562818652742866
-0.34667090255735056	0.6307677649140742	0.09838296407531885	-0.10935327788395931	0.01784120414006863	0.9938428205963289
-0.3611597395419796	-0.6965058497112975	0.049041289306231604	-0.5306423552646253	-0.6725107394666807	0.5158953344441001
-0.6560659971828596	0.1781110138307374	-0.044807296577465544	0.355178445467087	-0.061404618157912844	-0.9327795799354022
0.031167768338627708	-0.6247304635496951	-0.13538042743005405	-0.1693218640331843	0.40553135353804676	-0.8982618925780651
0.9316661386602519	-0.08538315306813575	0.10363103192026456	0.9211097463119062	-0.13162532217092265	0.3663763226692133
0.7792404099023114	0.4479980961110186	0.1319325962234284	0.7240340528147553	0.4212458944917163	0.5461928109546252
-0.08407600218288154	-0.5633239673308672	-0.021487493458152058	-0.10804923127752253	0.98274425804065	-0.15013023315930923
0.7300525838295003	0.4098971816223168	-0.19342294662548112	0.48365146976831397	0.3468395698050659	-0.8036066006500856
-0.521158231350123	-0.4215904886334555	-0.06543825472944768	0.2633259349357542	0.3493264987758292	-0.8992388165794618
0.39922528419201564	0.6199424611295365	0.19741258493996525	0.011892156246949517	0.2874096783848324	0.957733915756629
0.004591383610436977	-0.8333816955471999	-0.07488892621723872	-0.14051678148578653	-0.8937365616885581	-0.42601642271394946
-0.20718264010762055	0.7432409416888176	0.10570126519045597	-0.2584035962109163	0.49663143727470677	0.8286041256086801
0.0074920583053573	0.5615871021681912	-0.07572725316882156	-0.04111167147300182	-0.8639811345870048	-0.5018430327766312
0.8173978297471196	-0.3283190380937076	-0.16426728978613372	0.6584626523801974	-0.3019115845567161	-0.6894028796943692
-0.6562493383784039	0.3898316941513863	0.010905710715144998	-0.8743453356875319	0.44962140524188454	0.182649461838161
0.07934868475545263	-0.6440173900830419	-0.1516264871755076	-0.2561689996977604	0.3216325536176403	-0.9115535881379905
-0.40449587301445844	0.6783746694691013	0.03924660858695353	-0.5055486911103879	0.6769244483535759	0.5349708516711738
0.23372785098483562	-0.7702988481570441	0.13947813075004747	0.07467895929865725	-0.6063898773742185	0.791652935102339
0.6089730453921872	-0.49341290097894086	0.21880610531450762	0.2696025679562097	-0.2969175899810647	0.9160537102764513
0.7592667786275863	0.35874557935230394	-0.19535181091626488	0.5137312434967999	0.27541556110788684	-0.8125432161767512
-0.015752189793008006	-0.7121798260409719	-0.14673902914233025	-0.19778315901517907	-0.047093911154982626	-0.9791138777190846
-0.6457445083770583	0.21955914246650662	0.05418438586813867	0.2468601836303666	-0.047477832607329684	0.9678873411450801
-0.5709812480917456	0.30090538920151605	-0.027032059728228017	0.7471117408524425	-0.4416388758426016	-0.49676870878198087
0.09073826873890334	-0.5370067020310997	0.05695445658431233	-0.40848170103244635	0.8571829451378941	0.313656019368934
-0.33611201335105195	0.6792829637847921	-0.07971956252097769	-0.3957651994071554	0.42997013013890933	-0.8114774144278717
0.25681662575564596	-0.4386172223359812	0.0597109449445098	-0.6204256457934108	0.7258722497861927	0.2969536917301416
-0.4022623472107751	0.6310674931218291	-0.0801026975118047	-0.34047965285718074	0.4012096741814221	-0.8503554570492802
0.5336910410604571	-0.5260793210384912	-0.20851449883039005	0.14146211781131196	-0.27966306138931024	-0.9496194191983949
-0.07518638108518405	0.8412824881785831	0.0019565292103164655	-0.21729120623838885	0.9760916228401855	-0.005447523536291632
-0.47003044982788816	-0.41205316085906113	0.0052028531534639684	0.6905510204366332	0.7203533573841966	0.06504097692408578
0.45161209676409064	-0.4159165534007696	0.2070350551272561	-0.34339347316658	0.20547573550695125	0.9164391112913456
0.3637633173492742	-0.3123887766531578	0.04809446620899201	-0.8330308999903495	0.5200668028363309	0.18865322750715213
-0.18574092027076775	-0.6861517842029197	-0.12387462845080102	-0.15356868578336524	0.01848103923730511	-0.9879651359918926
-0.5311090017411174	-0.3599363440562506	0.01127443084538996	0.6747363428509745	0.6871075410135722	0.2694700256399107
-0.3284627112056547	-0.5907690024276192	-0.10101967851523484	0.13781760630479223	0.2827155343868904	-0.949251407167117
0.354562925770295	0.74732945139718	-0.14452667664287572	0.2109416799268039	0.6251310197546246	-0.7514750932733572
0.9292830485518642	0.03924729260666149	0.08834749340989777	0.9260090570727947	0.01468619582519029	0.37721551117542396
0.36697124140236304	-0.29736685133775287	-0.012654687319502467	-0.8341581651655072	0.5447072523016622	-0.08645325197867307
0.9374039952925035	-0.12090323591684274	0.03504114692505168	0.9769663279167589	-0.16292883234273028	0.13780779988185918
-0.5167375186126751	-0.35627439369760255	-0.005658689346656906	0.6978551629488308	0.7160914625964923	-0.014532334364356053
-0.7353128337828915	-0.16734273387588017	0.004181781072586691	-0.9944861433604366	-0.09836291390019035	-0.03635997570337229
-0.20499613380698353	0.7299967041665307	-0.1110229748449522	-0.2282975555958333	0.3791605056412553	-0.8967260100336295
-0.496909979243948	-0.5805955202049571	0.05757513525494075	-0.49048147224847705	-0.4845353111464266	0.7243296608818404
-0.6677692194104304	-0.3052299557979273	-0.04540005763112815	-0.3659218349456695	0.0837601409432844	-0.9268686258036543
0.25211113004645475	-0.516975020107303	0.15204540529065694	-0.3659491124915501	0.4338381295954233	0.8233260134210453
-0.3042539683430608	0.5258794242639439	0.0399519930998144	0.4424836508243236	-0.8283078491705169	0.3436776480303749
-0.6816436902172456	-0.2849991593964913	0.03953801140178084	-0.6413990179281199	-0.20046362469420664	0.740554950679085
0.8355225625968403	0.404790052529606	0.09880918885106298	0.7820187131295864	0.4709094112784636	0.4082781633696778
0.888683588611289	-0.296407690801891	0.07384885430185405	0.9050057421800063	-0.34468469890631637	0.24931318649657813
0.6468987569984991	0.12230063857400578	-0.25219092317650754	-0.13102615006955684	0.013820539604487009	-0.9912825735797995
-0.6975170618850621	-0.28103586076569315	0.017829836144630833	-0.880931165281426	-0.3045745575130774	0.3622079802428728
0.5966593288736459	0.08560281389910027	-0.23270075172733318	-0.36881006049738185	-0.04407864764959028	-0.9284590524612816
-0.5886791203525509	-0.3341868946906498	-0.05654805089796181	0.3065572214590693	0.3329160140610314	-0.8917340396962596
-0.6569116352935289	-0.02608568633945521	0.027040847210176903	0.8721486978579611	0.1144577121042123	0.47566383188606143
0.4960734317068061	0.4518853573132931	-0.22141624490661832	-0.12022156271428186	-0.0526848176869394	-0.9913481153680729
-0.22276716297123092	0.6290896377186872	-0.1116567884413696	0.001778138974981247	-0.28557360169614576	-0.9583551305419498
-0.2966471381351441	0.5258627694793165	0.019585536927601066	0.3377944915563699	-0.922267485647193	0.18792968470196122
-0.35308053894148744	-0.6846171790763989	-0.06346709259456776	-0.4476495084290586	-0.6087690921421545	-0.654988633531636
-0.665064228922603	0.01910885199373667	-0.03524411206555253	0.6716787510399967	-0.03531796473734189	-0.7400002005190014
0.010182692998021778	-0.725204497404703	-0.1484428384956003	-0.13803606972300464	-0.10836124938419697	-0.9844815300894794
0.5131714862038392	0.692512025966702	0.14995407772717959	0.38294965114670554	0.6282188115609356	0.6772670739727292
0.21883249611689856	-0.7154548204574891	-0.1727985395531073	-0.07263893378297608	-0.30974037471899263	-0.9480424492436036
-0.5577489070409187	-0.3581728595767425	-0.052732854576663615	0.4968191299340946	0.39103236502956173	-0.774767346776384
0.17049937310992508	-0.55992790903157	-0.1387878463581628	-0.31716915626887565	0.5899686899035894	-0.742523178927858
-0.39498888328443255	-0.48151511101565986	0.023270107630169616	0.4940688819285163	0.846586490934762	0.1979577057774515
0.2997511779206237	0.6295825884344466	-0.19951516546224202	-0.20989871457686948	0.05949723745302986	-0.9759111682701639
0.30385427080710903	0.8206690300868469	0.06269079159661327	0.2151550806756417	0.9290117672485649	0.30107379091039477
0.2060421807332201	-0.6899799347307063	-0.17834724862304063	-0.12120926605488816	-0.12361543790448373	-0.98489976004369
0.8782112611229371	0.33345743018785273	-0.03827203687643801	0.9076761943714169	0.3812448800057707	-0.17543166088481915
0.3014293611147514	0.38598228628918035	-0.06720842052548792	-0.7283916856054521	-0.6623667761475454	-0.17525925423998634
0.4530733750965506	0.5289205530540764	0.21793338922268837	-0.13557156968802958	-0.0032545114134404224	0.9907622104459697
-0.7063865257551198	0.2575656273500553	-0.02320091203792567	-0.8630185491638771	0.3462279981195722	-0.36786567809078125
0.44363206039473063	0.7362965344669099	0.10007191025223752	0.34423064511355206	0.7899806609870808	0.5073813341374735
-0.06906664762740773	0.6498908352404613	-0.12742155808345482	-0.13553698977161194	-0.3381839557708705	-0.9312686703969038
-0.7465723138686466	-0.0782636697653178	-0.010484301144214643	-0.9591585407089007	-0.1321993401380646	-0.2500764448168407
0.798124497082707	-0.18108718722745945	-0.21414518305920718	0.46834276906603917	-0.1243611035434892	-0.8747510312020217
-0.7001445359201078	-0.04282460098395536	-0.0605780493542807	0.14537732563893663	0.03423229558752826	-0.988783891014047
-0.38620113334804274	-0.6175256349950462	0.0946095387639447	-0.3165775424774064	-0.21393586157063188	0.9241266724497226
-0.6374071237779766	-0.10735677598072155	-0.015182455842435506	0.889171106876085	0.2943506788841098	-0.35033187199742644
-0.6114348674942629	-0.23522962664603403	-0.03546347324928847	0.693229619757417	0.28178543907609727	-0.6633473152245939
-0.694489226368971	0.17948942975184426	0.055955814940982854	-0.3166535938297125	0.05835730412268714	0.9467443829092732
0.4282812695586987	-0.20940209713630878	-0.09980025189237247	-0.8261779432945822	0.2955389098762077	-0.4796735960658233
-0.6533173141989593	0.10645702560967371	-0.03457071654119108	0.7557897044494757	-0.11597930829613515	-0.6444615758098571
-0.04683711843258093	-0.55590300258688	0.00195215114190583	-0.11145452324123913	0.9932616783774523	0.031766767476004695
-0.19916529500262872	-0.5611258213597914	-0.053498986939923984	0.14720031702685255	0.8466404199350086	-0.5114020590489119
0.4442813155846759	-0.10599436447791342	0.03341953464707257	-0.9750543856925937	0.1753435281285892	0.136101403685112
0.7712753300635239	-0.2177959714250722	-0.2215659250142195	0.4026706866620109	-0.16210010520636825	-0.9008772802081475
-0.6059389477683838	0.24805789613594678	0.029199800893035133	0.6951229694727561	-0.44027233200032495	0.5682995081700963
0.3777035622726196	-0.29305591614924664	-0.06845570996041529	-0.8404657890343736	0.45911774180904075	-0.28779881274771474
0.3543191734591676	0.7522732519397336	0.14724061651847475	0.1009256155161066	0.6763068891312586	0.7296732226457913
-0.21031707995993207	0.7486847475090741	-0.09752098420866359	-0.28599452745872816	0.624515567888512	-0.7267650485050494
0.42922682388447825	0.4709368687038767	0.20430376237240114	-0.24246002724434462	-0.10788737723583351	0.9641438943549063
-0.46058343293533943	-0.44520823051166775	0.054037063342060446	0.5281678591838234	0.7030332508290946	0.4762173461286891
0.4765786711933246	-0.45303214743914344	-0.21524408924200358	-0.22733818325951813	0.00992810134901195	-0.9737652608487667
-0.07572980237903047	0.5973354638770195	-0.09788834321994332	0.0074981086418645995	-0.6900548588442239	-0.7237182256598721
-0.7200807453941028	0.23160439405442165	0.010921940355994749	-0.9540315541498758	0.21617890174332793	0.20758245621299581
-0.04706804919572218	-0.6050051249879154	-0.10786605753092156	-0.11364436388812305	0.6720815326890557	-0.7317044293803292
0.25837968084253904	0.43435132211410227	-0.0010209624655591132	-0.5882336800047439	-0.8079995854968776	0.03343362895273025
0.3125691666938991	-0.391842470264839	0.0787664175728837	-0.6818254290928412	0.608643875208397	0.40579147035598084
-0.25416452263292605	0.7766522570849106	-0.016565190980583098	-0.40372109244929943	0.9042720586355837	-0.13892920313061885
-0.6399522808529565	0.15326064265724723	-0.008351041084310758	0.9587624635883344	-0.22226681095516965	-0.17712143620083637
0.5947674861762319	-0.2825286715032855	0.23477347811333732	-0.16176432184275813	0.015332403527685952	0.9867103027640972
0.020201649831702192	0.5453389558467027	0.03429887686060848	-0.23920729679081348	-0.9665845619445591	0.09216373349901473
-0.5505089586118018	0.4752827520314768	0.06556282825996815	-0.37186550352063863	0.16671553800533567	0.9131932854981653
0.438221378999277	-0.5574279380385505	0.20838762821143358	-0.054946414994537895	-0.12583239688218406	0.9905286968958205
0.008670192780495984	-0.6751898743837965	0.14220313289262826	-0.2014104211402707	0.16566463928079697	0.9653958097837705
0.7396377211518712	-0.22975018746189657	-0.228664774767651	0.2450425615461576	-0.1316831660515583	-0.9605278167807194
0.5345820500164922	0.3145918064925268	0.22570029372494613	-0.34114931314735647	-0.1185232664150007	0.9325070409693463
-0.6596802949000116	0.028335728243211594	0.027948737073968256	0.7964825973011335	-0.1863271099441202	0.5752370644319711
-0.529413583889367	-0.5796724503832426	-0.01795072929704847	-0.6643870609754287	-0.7377074003791985	-0.11990673306448017
-0.6183164070301558	0.19690810796902378	0.027517246427399288	0.8367653446017862	-0.3212507318397457	0.44342048370128456
0.6133094734424536	-0.1817303393039772	-0.240551664456844	-0.2489351333175036	0.0248446230945248	-0.9682014481002847
0.4365569434373981	-0.13574709654631079	-0.016729549492262272	-0.9735369563952299	0.2269783600875356	-0.026582298333402154
0.6025962724839802	-0.6697573512304564	0.08292176960740985	0.5707581150207776	-0.7477080212903776	0.3393639477551452
0.3015246205259931	0.39350711553658874	-0.04660469347561917	-0.6977449042259761	-0.6972087472503831	-0.16447495670840973
0.039331707858932745	0.6504340399547579	-0.14405649363920608	-0.12490676369875799	-0.2633870779239634	-0.9565696773183746
-0.686003246233832	-0.28913376134352725	-0.031503151490016396	-0.7644566703948857	-0.16705685479159202	-0.6226540021198815
0.47865059202156174	0.12263941493551264	-0.13014384016583763	-0.7957019531259227	-0.127079572400683	-0.5922070449344983
-0.6560080336741249	-0.04597115037612027	-0.01996868112049819	0.9099196286888489	0.08333318776093131	-0.4063272685217517
0.7606367342740229	0.48289735237504927	-0.12995804280270906	0.688856409921409	0.4818512397760678	-0.5415683052362408
-0.1285762896576173	0.7443350810022882	-0.12472821353654581	-0.22743956831390352	0.45509634983108777	-0.8609056598348075
0.6141116130149099	0.10348164253356353	-0.23602147442603294	-0.2281507587289577	-0.03204428381125137	-0.9730983481470025
-0.6274656595952105	-0.18292698475774513	0.007985398053427696	0.9123640871089669	0.3416699982312654	0.2255069508074401
0.060159419137710425	-0.6722005323022838	0.15611780825943913	-0.1990554401656109	0.18553642542223434	0.962264603205384
-0.038254486537069296	0.5621015710171849	0.03506875165074504	-0.02375812823964081	-0.955114521486455	0.29528258023162945
0.2677908673581661	0.5427303932664532	0.1697931962688838	-0.32213313248322895	-0.38274103171704066	0.8658750184620859
-0.47547166561823706	0.42849950496355704	-0.05623332822344872	0.4238257460038809	-0.5751184152533252	-0.699721762889191
-0.6562914436729564	-0.3720973086780006	0.010799807945618453	-0.8836553244577251	-0.4061662957167236	0.23277071933829746
0.8305688087966773	0.22313617073858336	0.19875328276642795	0.552745696606688	0.2186086126593196	0.8041656976979029
0.7236228589528186	0.019861545988229624	0.25299801076045536	0.14553158021707815	0.04119789814821882	0.9884954690577441
0.5224687573057639	-0.20373627440129327	0.2001074385906343	-0.5723237194798169	0.16577759136228698	0.803096102793998
-0.6607773834297975	-0.1611503947010573	0.04915132157710548	0.4379651640606004	0.06889066487228158	0.89634847652173
0.22125872101618174	0.8330565896956179	-0.06067232243685847	0.16373772392361452	0.9378908890867239	-0.30586048769402757
0.06075885201874069	-0.8552279651091043	-0.001365871353918777	-0.024621356369067985	-0.9990432504124551	0.036143777000528975
0.5813809950994164	-0.690285823420188	0.0727687753569222	0.5483214020304434	-0.7621393654915141	0.34421973744043355
0.17516570625393996	0.5966196724640286	0.16165576464420126	-0.31069747625754823	-0.3925330992995647	0.865670170562362
0.21958608194487692	0.48326734333789156	0.09559813321087564	-0.5367076349459386	-0.7030881260577728	0.4664890155055169
0.3815210952921296	0.49922596079677894	-0.19659545616395757	-0.30150150680318993	-0.22599628084884693	-0.9262950515024329
-0.26334795947037193	0.628961851393891	0.10312768600483128	-0.01295070154152262	-0.1279580910827442	0.9916950167546686
-0.3496912148380191	0.4991234218510134	0.02190799497341242	0.4249399282234233	-0.8691662502588209	0.2529349458111578
-0.552618615471284	0.3456164990643954	0.030241570758011576	0.7123259782847148	-0.5155037483577966	0.4762851940694618
-0.6301311868735553	-0.28821005887129486	-0.061711554592542545	0.03213946716734178	-0.07310917238798707	-0.996805950806346
0.3675366255482247	-0.3802011356428961	0.13301638298873408	-0.6257622738602723	0.4623260186780023	0.6282326233701733
-0.6520406622677918	-0.20529780041654658	0.054296425809509066	0.23681113834925976	0.17347644997479839	0.9559426792741648
0.26476265183458947	-0.4644205721092189	0.10379464152440264	-0.5134080536337903	0.6894837673518647	0.5109053777581941
0.4962645685276572	-0.5990702948037104	-0.20544363770325771	0.23703238376810623	-0.23950449795035503	-0.9415164600296468
0.5065395082410643	-0.7113617576080183	0.11250442604758272	0.41205959521934815	-0.7261930876649962	0.5503185345009256
0.6342385625748099	0.39371564419363186	0.21790029662572172	0.0894377742427523	0.23050549156772798	0.9689520642919458
-0.3504262779879618	0.5133405823033129	0.0502576474428961	0.3524295031127969	-0.7598710620854044	0.5462503220510413
-0.6431354569279512	0.21420165835025692	0.047440530818842794	0.302412861379126	-0.08599451328984709	0.9492899477801984
0.13301966188096762	0.8591941069453434	0.010735315715974596	0.10826371405477016	0.9931866200505017	0.04311967035735378
0.917957620008192	-0.22461785411009685	-0.03983033929853907	0.9509476992311118	-0.25825197361732877	-0.17030675691178332
0.3562921258435374	-0.3958364730600174	-0.1469718957156154	-0.5974004822408792	0.4512106257395098	-0.6629642788552984
-0.6422161737981424	0.21891139343026514	0.05114999399486651	0.30065451330100146	-0.06405882464520582	0.951579387448474
0.4204373083339635	0.2098662140941704	-0.0833931211545161	-0.8390077657489973	-0.41068537527397553	-0.35693625698288056
-0.4662294985043542	0.6339094652522633	-0.028144805020383978	-0.6253244087746248	0.7140279915424037	-0.314854587205885
0.9139668905877384	-0.18109163143844811	-0.08765492444320601	0.9126588639440432	-0.21451715215798386	-0.34790255747033066
0.608497612707965	0.469239313836304	0.20772356795255356	0.17280288992031362	0.3044228362670267	0.9367314972788768
-0.34913132332900365	-0.7409553704995084	-0.03575276321249874	-0.433259648672949	-0.8182327155047328	-0.37786412916489404
0.038415031032089916	0.8496788394487107	0.036508665765004854	-0.09835482559218811	0.9435163439860427	0.3163909558030081
0.0036299384569418234	0.8108858500708286	-0.10095945531512743	-0.09405096404230234	0.7163328525425471	-0.6913911053311084
-0.6642875367260663	-0.18897860668605326	-0.05547667907027225	0.10795664758679831	0.27531768651436733	-0.9552724918755888
-0.5834982054774622	-0.43679926101878935	-0.06348205925460913	-0.32611837632318585	-0.15488898719305993	-0.9325535943154352
-0.7113029010526309	0.2255918020184609	0.0020975296453137667	-0.9806126345133275	0.17012659728034973	0.09724094780822042
0.6811190888066446	0.011926831348352871	0.25276701904045173	-0.1259441322371832	6.030369872526975e-05	0.9920373339338028
-0.05222889476919833	0.669285734761952	-0.13481565447493482	-0.162010327202334	-0.26517322125882203	-0.9504924074431175
0.7784403041588798	-0.0398079597223467	0.23921573754300796	0.35824821399825424	-0.007818673864430192	0.9335936404593074
-0.05680001826587225	0.5607809074879042	0.022517614814506374	-0.08511398595922551	-0.9729132552069178	0.21493116860244033
0.7268966972476787	-0.2708141687071989	0.22751761836666848	0.24859307250660467	-0.22699427798386407	0.941634261305476
0.5379175596641236	-0.7273990226116772	-0.034436092353312873	0.4894126542490123	-0.8589835910945144	-0.1504075931969846
0.3053692117684631	-0.6381661876797954	0.18868999800312697	-0.07981300403374042	-0.009251608188951186	0.996766919662279
-0.05623722958634189	0.6702845517648562	0.13731668735245386	-0.08291351588919456	-0.13005292284880585	0.9880342029208167
0.7408041778317586	0.5422648034123346	0.07797338689788058	0.7620765695954994	0.5334254514742269	0.367010340171871
0.035061657742503534	0.8164318990613136	0.10286608281631844	-0.06610006869701684	0.7386375252322065	0.6708542220461098
-0.3124186934198224	-0.6492572705643335	0.10520165713851842	-0.19850573352700854	-0.1373595293490244	0.9704266244564392
0.35224643135587996	-0.42870019706775253	-0.16000841225236198	-0.5440100601481456	0.40130616984405343	-0.7368896881506122
-0.0825665062643483	-0.676095682504898	-0.14040015050197266	-0.09775094343438186	0.15915048369576976	-0.9824031130839779
0.42796786431245765	0.7478053434418673	0.10325592260716025	0.3114049159331676	0.8056021177998199	0.5040160772526028
-0.042561500818170256	-0.5789654441351617	0.06594499026267207	-0.08605375294181614	0.8982348144828965	0.4310092454408657
0.8359598919106953	0.0924587986715259	0.21218973752923354	0.5999762112787788	0.02254042958065558	0.7997002406738928
0.2635032728541911	0.7531129692060785	-0.15440077616782025	0.09121495250084581	0.580305263288078	-0.8092747579409748
0.7136697906460223	0.4127977746463993	-0.20043733355103507	0.4826213479574616	0.34694084350615373	-0.8041819978107949
0.7812543564989475	0.512608216199205	-0.04684886081835005	0.7831890434650455	0.593493590229456	-0.18541920222257574
0.36029885211633567	-0.7950798972077024	0.08173779105512118	0.2755582834611469	-0.8663180497154616	0.41660613191976154
-0.5938424440126843	0.25926029181024984	0.019962391192931753	0.8212904035437978	-0.44653022271848036	0.3550955269302196
0.4830776065599705	-0.508354603403385	0.21620322762512825	0.0012881039710699455	-0.07566644663070782	0.9971323531219118
0.9454545991934524	0.00528615622113493	-0.05738424203715826	0.9714866360056245	0.012025695882921184	-0.23678914396780137
0.8517578251552507	0.04299142411487753	-0.19723522361249846	0.6175887155419485	0.04750014453768922	-0.7850655480303184
0.5860110013749505	0.6647579124869869	-0.09117881714147023	0.5088215663967303	0.7219207232994987	-0.4689681042888803
-0.0867373860699257	0.8083901464212884	0.08762482609259946	-0.19411921752642805	0.7739563997594737	0.6027513754926501
-0.6863166426429301	0.14188202483118123	0.055796126118774166	-0.11488305405080045	-0.0962795146315654	0.9887022498984572
0.9151694791433627	0.22233248719892726	0.032680850096390116	0.9644055351721686	0.21592364987019239	0.15263990682654707
0.0016960004485035045	-0.7298520305371237	0.14732621116005334	-0.15932163922002263	-0.12552305106095205	0.979214266097362
0.3419365211635449	-0.3455488894551855	-0.06058093539211436	-0.7570649661157423	0.5886423941171572	-0.28346563976643074
-0.3508099818641355	-0.706939379285708	0.05504495125662255	-0.49052276425562436	-0.6764901052951426	0.5493164435776411
0.0868216603379862	-0.5380224980159952	0.05709681718384852	-0.3830541649189503	0.8537614747294437	0.35264833900934617
-0.07707628909467962	0.8122831997447074	0.08989669853492326	-0.17318545438309846	0.765539554517082	0.6196418230396561
-0.33064423061459025	-0.6996449647975614	-0.07437335570035643	-0.47957349997707405	-0.6626006193186322	-0.5752996414028989
-0.6003311018315084	0.25514590719320546	-0.034155401866296016	0.7454735304014812	-0.3662320855662653	-0.5569050861435324
0.44561634188287774	-0.2811646765766363	0.1591463540861139	-0.678942328030274	0.3141785964705714	0.6635729987941142
-0.47953994469226513	-0.4130553170252073	0.04319677127242555	0.4534437736175015	0.6663658071862159	0.591899784744498
-0.06421263056425836	0.7816941848889254	-0.10901942772104889	-0.1607166936799586	0.5925415200160618	-0.789344469436277
0.292881884421317	-0.6778914713209044	-0.1846023749646981	-0.05259157662282246	-0.19349597366098126	-0.9796904787969081
0.5056345365999343	0.3758054192849004	0.21586998670872018	-0.33546098894400667	-0.10383671494620753	0.9363139759321601
-0.6353964000145871	-0.18917533267599485	0.011555863406843577	0.8548748278462674	0.4434749321998592	0.2692935447149544
0.5699526309252014	-0.7046302133718936	0.05268126038195119	0.5487259991082603	-0.8014127705222903	0.2379860272083802
-0.5887254945335524	-0.42855164925981915	-0.07968308457994462	-0.2208215650382639	-0.02627198611772122	-0.974960316710112
0.09595902776370074	0.5036232906133551	-0.02235130289566244	-0.3763446234964849	-0.9209025977020389	-0.10150433444403202
0.42804408425100166	0.24423412742882256	-0.10009637598956707	-0.7868529379091331	-0.30873820145004294	-0.534362402372358
0.6443245760243961	0.34873236654650047	-0.23901205884477958	0.04560365374044021	0.10608842197478846	-0.9933104013793576
0.38309428322337397	0.7483229052833906	-0.13712688697258085	0.2293839905725375	0.7044612907463027	-0.6716526443847823
-0.4977793220102468	0.4650625943631532	-0.06757548350408141	0.04304077590627614	-0.2395084981739655	-0.969939776951042
0.417772243024231	-0.3702764325144258	-0.1665992932047405	-0.5967774383454173	0.3045993503052258	-0.7423448827031249
-0.4349494281809756	0.45398257092201494	0.040153363399074195	0.4246265244469548	-0.7482576740295763	0.509708512771709
-0.42895165550146913	0.4729383080139432	0.06072614787892797	0.4172669945141698	-0.598769465144221	0.6836398049411809
0.5043175284386803	0.5528927304985696	0.2065776563861386	0.11951949416814175	0.12356880581413628	0.9851120955218551
0.398572565010577	-0.7042098978784402	0.16368436010431736	0.15413096019201108	-0.4937740771334389	0.8558217149975271
0.019169711634468508	0.6205953903897165	-0.1196528588869103	-0.13216128522821313	-0.5709387285243304	-0.8102853589679675
0.5335742573944416	0.20607177950307887	0.20873812113661452	-0.48142414350338025	-0.1239861311233697	0.8676740363414682
0.7721985110836175	-0.4441539462093484	0.12785173625049762	0.6937698105469765	-0.4504930892151274	0.5619069554143491
-0.6324187410712674	0.23047429769392722	-0.04298523244145079	0.4550250957061183	-0.2780457552202053	-0.8459566893651618
0.8721268344489247	-0.05320211007995593	-0.1799515758542257	0.6874281838637106	-0.05780124494271967	-0.7239485534987359
0.12303952933491924	-0.770920045026632	-0.14843649014500898	-0.04916480294967521	-0.4960700616201553	-0.8668894486121603
-0.14470236886598462	-0.6127088083338761	0.10287162018734705	0.03511303808999838	0.6604671844336443	0.7500334478157521
0.14463273246238173	0.5063348449801931	0.007674658589428769	-0.5229287805135545	-0.8485197562458081	0.08099205992664052
-0.6499828892503289	0.0199641995155602	0.016924873273238005	0.8338658836418603	-0.025488520252198693	0.5513782943075767
0.440585856439653	0.40153701297888394	0.19705578722127284	-0.4245995707045542	-0.2228422900186223	0.8775286424594719
0.33888742902486996	0.3373386524421629	0.008105891593651026	-0.8283401074318791	-0.5590278232638862	-0.036613648228278756
0.5768709445794058	-0.6393395076309883	0.14671452699031737	0.42653933616584294	-0.6144324096999021	0.663729620111664
0.28670338799513556	0.4041150180690584	-0.0243899423300565	-0.6467267514822598	-0.7609731511356967	-0.05161755677878957
0.6026831575915644	0.465927528728022	-0.21969324371753723	0.17027941971206986	0.22360971426305962	-0.9596893324976131
-0.6593071114839073	-0.06715291931038189	0.019580099230838383	0.8619457354779428	0.10545146843991193	0.49591283195260677
0.4772456747503846	0.09654734160355066	0.11353288283320331	-0.8885927448016306	-0.10001931129520703	0.4476595483779352
-0.16186093744094351	-0.6352133829326844	-0.11782101559592423	-0.06712109332821103	0.33605201031194837	-0.9394486708680386
0.421611424707178	-0.16579942376663764	-0.012928106444866017	-0.9419382965044522	0.33379082385650105	-0.03655039654352177
0.2507750456219314	0.5029010917302517	0.12890255227857306	-0.46708881708539723	-0.5700807103120887	0.6758964570729963
0.6015820798628994	-0.3396824619902348	0.22786228371152004	-0.056956886619355274	-0.027100349489684213	0.9980087595428041
-0.591452097328581	0.3192771101362197	-0.04893465711394718	0.4362428361974228	-0.30329976538345454	-0.8471726153416254
-0.6526924912400714	-0.009426299325768496	0.031317095098696006	0.7579077668825465	-0.10995028714983127	0.6430293548935233
-0.6748954718627214	-0.11933772153715641	-0.04817510062144217	0.39251928659711155	0.09155096306890137	-0.9151759562021123
0.14945329308965905	-0.8462796683653817	0.011862444080495171	0.006772752304684728	-0.998225765101219	0.059156163789640864
