-0.03373130796035705	-0.4596021039082072	-0.12791724267328888	-0.25635296346550557	0.7023317339097955	-0.6640883176699564
0.33310538363920644	0.012249266082465246	-0.22653141498206047	-0.7670396140308007	-0.031275755077507905	-0.6408369977239238
-0.5220114407061907	0.15674805088228969	0.012368707503888887	0.891415450780812	-0.3742494617826129	0.2555696274299168
-0.6038611839391858	0.15816148166214455	-0.04925761798296558	-0.45921317607052714	0.07058431605515825	-0.8855174268472885
0.1901328299545935	-0.8122011076326422	0.0038164626819553755	0.04363989369767497	-0.9976640350392177	0.05255504606906619
0.6994980147781424	-0.05448433759955369	-0.334450557545124	0.2036335552910512	-0.034813419779061654	-0.9784280254381582
-0.6135732991290901	-0.13746962359277798	-0.045249176577133905	-0.5295480372348405	-0.05353028382313246	-0.846589265803992
0.03498967229125854	0.76740273622948	0.12036733502487434	-0.08006988364973569	0.8087752712125034	0.5826417204487326
-0.34222078727356847	-0.41989985888207365	-0.08760600766575082	0.19129653151246118	0.5779391840323506	-0.7933422569051282
0.33367688597028644	0.42721245907512007	0.28653706636247167	-0.2570809949624506	-0.013752518996693781	0.9662920005103848
0.24786640102578017	-0.07986453749730967	-0.04663386717574125	-0.9793239331648093	0.1306733977831367	-0.15443152865402096
0.055199555216073906	-0.6065994600734278	-0.21339940199471774	-0.22513211383436318	-0.10353502687041305	-0.9688116584411104
0.032706543827492676	0.7034922489230805	0.17879181569971536	-0.17600199774368774	0.5311246216957002	0.828812362974172
-0.5553587717933924	0.23929151862078074	0.06206445659309036	-0.139529054984558	-0.06712527962592793	0.9879402004424446
-0.23915015787438854	0.6091331208882276	-0.13460623829739105	-0.32537880528445623	0.236290347878893	-0.9155847883024987
0.24177897983150437	-0.6465397639192292	-0.23585616344917598	-0.05780162404026393	-0.41370570371688	-0.9085739171748377
0.3273613103683751	0.04779029965050147	0.22124504497730718	-0.7770034456349514	-0.0514146631494698	0.6273931605338385
-0.4413101469726374	-0.42929405934725845	0.09114326829974548	-0.22743597512217856	0.007964939626670203	0.9737604617959014
-0.19471959756943708	-0.4240312210027234	0.032935955347026494	0.14711965680182676	0.962557766207107	0.22768037530032553
-0.5872273554814149	-0.20384756963997944	0.05414473268535887	-0.27035629036248765	-0.020637175156566254	0.9625391333670494
0.6164274759888846	-0.5847289402312293	0.18180578241438436	0.4970697548357437	-0.636942021007535	0.5892592983588548
0.06993956538023698	-0.4362607326687259	-0.15825345904489874	-0.46289645603321516	0.6035165964278287	-0.6492261461371212
0.2641141153816966	-0.0583593892156941	0.1070476369919865	-0.9455633357810498	0.08027416301623615	0.3153823659919147
-0.6332979619648118	-0.05067000906850144	0.03606082218302795	-0.664931750957632	-0.023781057116238125	0.7465254368679288
-0.4272074836013796	-0.30112653149775426	-0.0031954913476779706	0.7101598885665962	0.6923765209958371	-0.1276232182824904
0.3335156107841569	0.20360632708343684	-0.2526225753950698	-0.6354038982773013	-0.159965527078554	-0.7554289617167779
-0.5643296269851958	0.040451174799710256	0.036977803980137655	0.6768984416274987	-0.0619459935827255	0.7334651959031955
-0.4025597061711525	0.35162232906031937	0.057304894984091026	0.4408917264133364	-0.6150757670541966	0.6536790392562394
0.16881612555629602	-0.36079064515730463	0.16970539142133906	-0.6063497568546343	0.5044948814520988	0.614674618762609
0.4673916060121902	-0.7002508874936516	0.14739535356227465	0.34526588098693434	-0.7884026265600287	0.5091294234863704
-0.1503292937429726	-0.6912308428433801	0.1293560924725518	-0.30180660095355594	-0.5735281523520963	0.7615630204260524
0.18254361811012584	0.586389455510868	0.24417538025376678	-0.18961473601877735	0.12684171101051278	0.9736310554991838
-0.5621932151865959	0.036898409215897224	0.034539131035222166	0.7787268446365863	-0.07125136611008662	0.6233038939953702
-0.3515710586297694	0.6239558913899441	-0.04968964413367404	-0.5949340113236219	0.7047498411386776	-0.3864986204184871
0.2149518593330306	-0.24994573736171716	-0.12492236977780992	-0.8065612951975811	0.4304471086279232	-0.40518411094595147
-0.21925545355391501	-0.4233107486587349	0.04434951363531215	0.20270511819318943	0.9260929745803222	0.318217594565818
0.45259130514331425	-0.09331523768973649	-0.3183286472654565	-0.39827189522532047	0.01797756826094543	-0.9170912192977607
-0.5647917681559074	0.35080319716913466	-0.03254958916584385	-0.8152942881283359	0.34513525563621306	-0.46494825417699504
0.43344253467942984	0.3429001582415657	0.314093999334125	-0.20885034050956172	0.04309846271954687	0.9769974707133341
-0.637565962529391	-0.12724088265172664	0.016869726435110956	-0.9316169974493231	-0.14055574681534075	0.3351624264452834
0.6672964300449461	-0.01780925069184238	-0.3433682880860296	0.17613804302875688	0.002332838412596211	-0.9843627114346317
0.07688855443478938	-0.5062046637786098	-0.20439050251226534	-0.32305503372252664	0.3719302155214769	-0.8702317851978776
-0.5083943397341192	-0.2453092587996786	0.054324602919575304	0.3653946907793082	0.31136985054757843	0.877231745960138
0.026591719739619477	0.7189426919428069	0.1672839083889879	-0.1788047844827092	0.5679882103486122	0.8033792640783505
-0.48220032544733565	-0.48854573652877276	-0.03851760740146587	-0.756626905633708	-0.5426898793645628	-0.36469634013304403
-0.5148236038908943	-0.18778067195244774	-0.02804805235173138	0.769093511897992	0.35196985022823146	-0.5334907632628041
0.39172537059295703	-0.15484220400547405	-0.2886096103569399	-0.5536301716298594	0.10008202258720389	-0.8267268120824117
0.31818096080648206	-0.03397148527819567	-0.20856979072530835	-0.7942868229069585	0.047974392203642476	-0.6056458541499817
-0.2108802365269128	0.4197972149202348	-0.025402632257009908	0.17199376730303448	-0.9666225393315284	-0.18989210216640734
0.4702908616120784	0.36997578680913734	0.3178873819509356	-0.08993182012875664	0.14190305700110514	0.9857868888061301
-0.5593537572336963	0.35056387923066945	-0.041214933624937757	-0.7769751553055242	0.35202243557532414	-0.5219097746637561
0.32852484578125807	0.2552603434701547	-0.2599358083938105	-0.5877895306542654	-0.1730783985168568	-0.7902830730947478
0.23875455104052873	-0.11432579455069147	-0.0017696873570616732	-0.9764931980711657	0.21553916277414117	0.001975710345197862
-0.27678181967034704	-0.4638366844965478	0.10760799726771587	0.00941105022387459	0.51413009534478	0.8576605839109379
-0.2770929201380095	0.4634202756317342	0.10736634592502231	0.06892864901789478	-0.5433470709243141	0.8366736531423328
0.1930438837388701	0.2671344952447888	-0.09868173974827765	-0.8122577257720053	-0.49025341671496153	-0.3160521702551582
0.2726526495905283	0.45821341847160213	0.26851815362672976	-0.3199404875690469	-0.11405002165100434	0.94054807265524
0.6504622459822301	-0.3512502217737428	0.3013741449252873	0.3110319041742268	-0.2795323580978811	0.908361610462481
-0.18136794480901874	-0.591402042349672	0.1549092870436069	-0.26300985067536564	-0.07720146678887443	0.9616994083253707
0.6902957701754555	-0.3712496627720181	0.2766118150215499	0.37731266944581454	-0.3233919924463672	0.8677861307357027
0.6493434819810298	-0.04386170863542144	-0.3459456543828673	0.16367449124132769	-0.025529624145133677	-0.9861840087974969
0.3442004934546224	0.2072749981658388	-0.26196476219200143	-0.5987688970957992	-0.14209384810478343	-0.7882164336027606
-0.3894243155094513	-0.42273434715015656	0.09507794991745233	0.027814489743328313	0.2983849839568711	0.9540402274062534
-0.2154224194958069	0.5044396102542712	0.1313590271723974	-0.08135882823411518	-0.45697637186677625	0.8857501547410811
0.2701313429149734	0.01995690160953642	-0.11784144488755559	-0.9429700538068475	-0.020413211344275234	-0.3322510773889595
0.0893601772036421	0.43447110344317474	0.16890518595414597	-0.43025709942865875	-0.5420995028622748	0.7218081167372056
-0.5984383574038805	0.05639434923572912	0.050649906248061774	0.0428399469392885	-0.08415623513159022	0.9955312486480353
0.23962140308944907	0.7342333914796215	0.17628953528379424	0.026902359248712426	0.6887334078954934	0.7245153938430254
0.1931473460385853	0.5966186797202374	-0.24470330881454644	-0.20925305476894604	0.11716176909291397	-0.9708173252125679
0.3225723717115889	-0.26362909621382036	-0.2575098831313855	-0.5605468240334226	0.19720692529701941	-0.8042988789504429
0.526892668819555	-0.3056102710002243	0.3296275095866436	-0.011629079451517522	-0.13531491600857198	0.9907343932743548
-0.1279531869946549	0.7540151959579288	-0.05860253923943935	-0.3431086805847469	0.8768409219824201	-0.3367884066359972
-0.0490754957761689	-0.41669494468668156	-0.027142316533097597	-0.25401149439168325	0.9557545183229225	-0.14836260115751007
-0.6438337606031415	0.10013325577041561	0.004636057414476932	-0.9918534786730187	0.10729090475136364	0.06866832313276715
0.4208486274295739	0.39667434565201826	0.30839419639293403	-0.17108644516770155	0.08567881112409381	0.9815235960506711
0.1415870520915746	-0.33113072043179476	-0.09762178684925199	-0.6757703511369912	0.6628508233503988	-0.32243327760621376
-0.05495579126642479	-0.5213070262425957	0.16796044811382638	-0.22968921773630718	0.42127694217137585	0.8773645771573064
-0.525222832383041	0.37965717252894543	-0.06197525914512407	-0.5473719709790534	0.20741714831353927	-0.8107786701510997
-0.08968405432737771	0.5084230253496953	-0.15246570790359174	-0.1958554853920883	-0.44422996407111853	-0.8742427396685671
0.3549066794340342	0.1631110966994495	0.26314162387802004	-0.6315868392758106	-0.10684776080933284	0.767907299394675
-0.19943685731644334	-0.41997134852349516	-0.012476144550898016	0.13336567961168577	0.987242837747328	-0.08697801341900314
-0.5973742536303845	-0.25679114489327487	-0.03667443965305929	-0.7894565455374225	-0.22809686518677624	-0.5698510180740983
-0.6258981899564179	-0.10626993047874454	0.038745313448364946	-0.6338415897403646	-0.04166351333520216	0.7723399450837538
-0.49291130914364695	-0.28106275133822284	0.061607799464864	0.2912053560589961	0.30540000434496134	0.9066037050159518
-0.33353759099168323	-0.4741688691747342	0.11187770366727529	-0.058425407512841594	0.26699768342393293	0.9619244818608221
0.24605038641588373	-0.17518961077047346	0.12260189313364829	-0.8732043123704628	0.3229571508269511	0.3649834346752815
-0.4637278345270099	0.5232277197942815	-0.016471820206906147	-0.7784029627848522	0.5953857877117772	-0.1990090232089735
-0.03477844469854888	-0.6717355303637041	-0.17799434723270577	-0.23072318003333045	-0.2946670025522884	-0.927328513420221
-0.6461459709377355	0.07508244170129993	-0.007186885474449976	-0.9891859946472841	0.02582017075735883	-0.1443758524675233
0.29184924434670445	-0.22458362403074456	-0.21903902278269097	-0.7011541213044291	0.24293849331762635	-0.6703460200839383
-0.35647650523268454	-0.6280921806350379	-0.030541536624112724	-0.5873658865386193	-0.7746444220212239	-0.23436581397914327
0.5339524615437727	0.3065094279573023	0.3297176505940511	-0.02331241452046328	0.1288664446554544	0.9913879012632179
0.21095165549743491	0.20107381936546898	-0.002129819478135316	-0.9172693473306947	-0.3982302809530309	-0.005439465009576067
-0.27425624939708193	0.40031192498160717	0.010401408499858022	0.32779946728381837	-0.9395182791785541	0.0992618372679755
0.30214769526098817	0.054538108652247966	0.18709536565120355	-0.8469928973142168	-0.058963550614565007	0.5283240781927244
-0.5060979942796638	0.4671481336617236	0.013609644690380774	-0.7883617382226649	0.589875824264432	0.1747348896325396
0.25080488247482935	0.2706515922671614	0.1944543322551492	-0.7348893824216955	-0.30455407709978327	0.6059574322720688
0.22815981969032784	0.19502751980786237	-0.09328414042010573	-0.8960721753872258	-0.37158240633664635	-0.242860395696524
0.19599831071749832	-0.23547569944203123	-0.03709045418165459	-0.8753720313849087	0.4727186928965915	-0.10129582447068898
-0.0029695268916051045	-0.794464640542161	-0.04424245428121802	-0.19652763869632695	-0.960957267681696	-0.1947768387621458
0.367338432815573	-0.09745778645414074	0.2657718051150197	-0.6502380542533871	0.06974489371352693	0.7565223873763804
-0.3046471926582755	0.3976391308441388	-0.04490302683140278	0.3511642076458729	-0.8606438768382473	-0.36874898851288795
-0.3648137081761816	0.3533610677250597	0.005207372928359106	0.5684473383342529	-0.8097995342175345	0.14523201410766418
-0.18284962432693597	-0.46513287012069454	-0.10496014889525224	-0.019268309968009406	0.6917907879129286	-0.7218408674976676
0.21970822074468044	0.24910860733646592	0.13338385274806364	-0.7840768754877373	-0.43379409382055123	0.44389879194676085
-0.09477731047561762	0.4334157431556316	0.06136938467028523	-0.15176614703543373	-0.9116502773330236	0.3819172795942076
-0.47252695213010387	0.39723124180390823	0.08340338952684534	-0.1587936943610752	-0.029550862993391783	0.9868694488773612
0.3883032048780458	-0.7014826958373207	0.1833534795299404	0.19980466826470977	-0.7541849603460725	0.6255262905165724
0.16920135274551806	-0.2828425408191009	-0.06008375696047617	-0.7689117737393767	0.6070144370301639	-0.20076891552707704
0.48704688538062313	-0.5430886547752094	-0.2707770538569925	0.2091252012496439	-0.3970059770417972	-0.8936738243875026
0.1905105887418544	0.2466614503639997	0.044121804001350885	-0.833079194102859	-0.5325760235460991	0.14947185519941633
0.1440644229545266	0.7772781697490803	0.12403744186134025	0.001813072774010778	0.8568119474407749	0.5156258328379815
-0.5433557286946932	0.24551128518229332	0.06319488663814865	-0.062147132651711345	-0.13939252150203343	0.9882851101035953
-0.3178044247096252	-0.42667461566686987	0.08698906242327992	0.21548077578329028	0.6658172308129311	0.7143216715321125
0.3482543960804721	0.08875976812359854	0.2477388546109012	-0.694447643009468	-0.07127251118457453	0.7160046789428397
-0.008992594459789383	-0.46296254927660424	0.14173188865418515	-0.2969570200491751	0.7005587173102809	0.648871336895141
0.14697729686834085	-0.3005192683605512	0.015252188501698466	-0.7336165483164486	0.6731181102872187	0.09337435215102599
0.24114586481528696	0.807674748374168	-0.0019387364576538876	0.11159271903668988	0.9934897784540649	-0.02291560964260032
0.2004176476813137	0.22477846127031242	-0.024191764592434724	-0.8798292253343445	-0.46345315360786676	-0.10541208971693364
0.6894375582976348	-0.3233277247276944	0.2944280636541988	0.3633598311423706	-0.26318228379552683	0.8937028133604362
-0.378776258433788	-0.5083939325740758	0.10502023000207474	-0.23809401390226795	-0.1192482706932067	0.9638937132695626
-0.29463384226749767	0.6276674122685194	0.09923397812704005	-0.466847832991253	0.5441087282402104	0.6971361364067942
0.39507892754994417	0.601042580056778	0.2559722105720856	0.06349014922456146	0.4224417358113861	0.9041636913723674
-0.20400514198333933	0.5194950777769823	0.13899789554275194	-0.09611474021334934	-0.3733353005669222	0.9227040208345936
-0.14902605219356638	0.7546157257693065	0.02438418582739983	-0.3747834175740334	0.9223324134431616	0.09402291754482138
-0.25020876527513314	0.4299251065291937	0.07065990024964042	0.15685534542796406	-0.8001850415173932	0.578878484608369
-0.6268655073538512	-0.0932388052255475	-0.03906448526452376	-0.6495552905278805	-0.11338707610804782	-0.7518120080970434
-0.572248410411857	-0.23194339554643809	0.058429907560402776	-0.2914297061205297	-0.03254663093176932	0.9560384109467008
-0.5269708212764427	0.3230034004930356	0.06980744011158677	-0.26090484130369784	0.041436094739474634	0.9644748383638809
0.08474762004857972	0.6098781927037437	-0.2200833636691844	-0.2107843062365591	0.11711118140175758	-0.9704921161117469
0.2691811918289482	-0.053436165475322275	-0.12043764643123789	-0.9359681942354825	0.0877676693753623	-0.3409697575914731
0.6025410407176808	-0.6623054321918906	0.05759314963402631	0.5476196498531104	-0.8162148446221125	0.18413594573916464
0.6193937583282128	0.32742454672844945	0.3170298063218168	0.21479100350151253	0.24645986911429218	0.9450515106230872
-0.5504714654196488	-0.39602067178669975	-0.00420570132301519	-0.868424144478018	-0.48603631223509997	-0.09802146946729998
-0.001378834282760518	-0.7857360596539217	0.0734605084336036	-0.20065966158272797	-0.9020874699486718	0.382065304333054
-0.5435291671376575	-0.08350221795748108	0.012944354485205535	0.9353034742014085	0.26635356127133014	0.23294461046535142
0.24637855289143584	0.4327928443252754	0.2545355264992047	-0.4252614611073012	-0.21233379125920193	0.8798108039722954
0.08925712160579022	-0.5991110792381465	-0.22202967591998132	-0.22413860890579843	-0.10732449577327857	-0.9686296178647358
-0.47649846713129657	0.3987361565291409	-0.08224444775155415	-0.3061409553112955	0.06716759465360454	-0.949613726580201
0.00044866858649349553	-0.4225390823616786	0.09258208759902292	-0.3398175682210192	0.826084959929368	0.4495638545377583
0.20984575376998554	-0.5610398182737814	-0.2525470460505997	-0.22469773604746882	-0.0849489257570269	-0.9707186036271632
0.14554542653777588	0.4909723792183925	0.22614740300642533	-0.3460476668317276	-0.259755900117612	0.9015419483498296
0.562341955891939	0.6778282580701622	-0.09314036885377923	0.4909587575559189	0.8188825492322354	-0.2973060190141885
-0.6494190272901715	-0.01974306525004607	0.005911549720372636	-0.9965038400958276	-0.005348490707915488	0.08337559787740945
0.3762020299424399	0.4984187771467616	0.28933468730204487	-0.10032536508478605	0.173376535389879	0.9797323094074256
-0.023549269640740934	-0.45133553444693153	0.12253886398363023	-0.32445366000981424	0.7259811351825574	0.6063672269056772
0.3200834686415055	-0.442864198946082	0.2828372985942559	-0.28403434502994446	0.016159625048257215	0.958677921599173
-0.10052803032614338	0.4235839170828737	-0.015334436207338759	-0.08277069872703824	-0.9864394737827932	-0.14172570689668348
-0.3630992542478676	0.605893221233363	0.06156265411413222	-0.613117520570404	0.6584877704390859	0.43644101795289864
0.5556155089740539	0.12152455270819533	0.3451240105290847	-0.09231615598836655	0.010397973974293168	0.9956754538908554
-0.14768191636503386	0.4395317095424206	0.06774196244985912	-0.005076033886364434	-0.9020200015611597	0.4316643958720595
-0.2198708474673978	0.4298990360491748	0.06019248921754722	0.11613435741920011	-0.8816592250165617	0.4573727385514197
0.0029353784731739182	0.5168817249353619	0.18285020869748747	-0.260822738067288	-0.41194584609769613	0.8730819659058002
0.14345129152380778	0.5052629399844771	-0.22907496745189074	-0.3438388308983431	-0.19217481653816706	-0.9191537946693054
-0.5564136767328776	0.2615137673644122	-0.06251718975870509	-0.2609233854277684	-0.020624673867916457	-0.965139166009107
0.004382166224258975	-0.3985776344610711	0.010054080039824765	-0.34250397676866695	0.9381617668293983	0.05043337344644766
-0.03611311528105043	-0.4396894154353197	0.10006162752779978	-0.2606634861400388	0.8157104568378453	0.5164019728842217
-0.10336897496372655	-0.6356874399786442	0.17032399360831119	-0.2516604276919388	-0.18939528171927758	0.9491029746009576
0.6094775903606554	0.5849033266637763	-0.1873722872272536	0.5170091550137645	0.6227692295986231	-0.5872478354980039
-0.5380041245106987	0.33944634381152666	0.0635880946191598	-0.4702548086605201	0.15418407934675743	0.8689578152060382
0.3147168270866697	-0.013465490422491089	0.20293288666239973	-0.8231976076212705	0.016143884074169057	0.5675253948623062
0.2815191157447129	0.4501709376932251	-0.27086999662786354	-0.30476106749414394	-0.07092442681253523	-0.9497844057580348
-0.42690128141238215	0.3015046863045052	-0.004204022090429451	0.7278624262667321	-0.681495967920436	-0.0760232473477214
-0.5684214472271298	0.2553000275614469	0.05878376501111348	-0.2922034868042239	0.022996499357217287	0.9560796427687221
0.28377528736283797	-0.032509730490771827	0.1516278798532456	-0.8996093522099493	0.03300066775243195	0.43544686167693164
-0.21109447829906955	0.42102972346921874	-0.031354403669246286	0.1715816348576984	-0.966396771508609	-0.1914080003481998
-0.5245099656076714	0.43869041062272185	-0.013965215389462667	-0.8526227915158624	0.5000416479463299	-0.1516335243500471
-0.45774926821458384	0.26673407950164973	0.005191535305321335	0.7550722771672748	-0.6538885367910517	0.047912813595981624
0.4344670993677624	0.25743988782980337	-0.31503796530967787	-0.34149521573045083	-0.008103108671873485	-0.939848582093448
-0.00815678733770889	-0.45039205042034947	0.12868754857375012	-0.2763666712501037	0.7364184351658346	0.6175025112256957
-0.4378636260333148	-0.29360961763045745	0.019661327563652492	0.6921106728478024	0.6414574462777263	0.3309307497725453
0.06741626149816524	0.5990593423366699	0.21675602749308218	-0.23128762734040625	0.018951365546376213	0.9727008168924159
-0.4782992812672295	0.28484726584524095	0.05641903887193102	0.45701660315550113	-0.43340126105224075	0.7767233557442021
-0.6455082825838103	-0.03592966153223204	-0.018981387666921937	-0.9420445114118484	-0.011339147350011555	-0.3352962306024142
0.10277828444477605	-0.6465448515000048	0.21676293771248478	-0.17894180910103463	-0.2928826554875305	0.9392547998654147
0.023417577261154184	0.7943880828787415	0.0621810763635522	-0.14130031891316785	0.9498057625531575	0.27911150692125414
-0.5573583901312019	-0.04631968940810568	-0.029894195097490174	0.7784301104662301	0.08032170766998373	-0.6225712701342003
-0.5529663507912542	0.15730795089514302	0.049754765324205696	0.3773601814285006	-0.23481788436384138	0.8958012361317319
0.3203034757348737	-0.7229997073563761	0.17776379756920616	0.13264404649867456	-0.7127508233578301	0.688761076666787
-0.01870552378814265	-0.40863975801037883	-0.029124814946795734	-0.27656723799940897	0.9548017229085679	-0.108923059065601
-0.6294493610805932	0.18319047152258172	0.006767937249689262	-0.9747307386807146	0.1856408339566831	0.12424760697419948
0.23111902818616878	-0.7815149700121725	-0.11230059073982582	0.08409890327295014	-0.8808239711331277	-0.4659146985721239
-0.4457678175805512	-0.3492485859533363	-0.07466677208765446	0.29077444806789754	0.39472714445767737	-0.871573692684157
0.08176305361559849	-0.4381640418042574	-0.16722235883961745	-0.4185414070846215	0.5661486209617482	-0.7101400069977295
0.44206361941295313	0.42924228753715804	0.30718968979536576	-0.08351713995952889	0.16188663720444724	0.9832688360909325
-0.3708639049719665	0.5676862060599706	0.08841199412716826	-0.5099251378867129	0.48854433013759274	0.7080259820385315
-0.46543532768212004	0.25722287395629073	-0.008259996178406693	0.8045736281399727	-0.5624713660116991	-0.19049209778521814
-0.47342332680312504	-0.24800749356885624	0.0144719535816793	0.7972268693207925	0.5666046877269749	0.20829893585610493
-0.5396640931151745	0.14001021227457391	-0.03464281795979712	0.7149954864727955	-0.29666822438293294	-0.6330635189023355
-0.5038834872504857	0.24097784568914232	0.049644385434280715	0.5764447110533244	-0.3143503407867789	0.7542515219380628
0.46785511369094396	0.4457489602286635	-0.305122104059967	0.014242038414866084	0.2419105863606861	-0.9701940179924933
0.2302408432364504	-0.7686570949819101	0.13454925754254346	0.07330533767415216	-0.8378481826606313	0.5409591022256257
0.1899370460236715	0.26126299264293484	0.0796056994009056	-0.8142877653787395	-0.5078695601970038	0.2810764041676221
0.10678921393572481	0.7296107574816484	0.1740307909942934	-0.08070024903764975	0.6361227102349551	0.7673560890020977
0.19838406572121195	-0.2621107603446126	-0.1039864927019467	-0.8002031387550524	0.4768639787507924	-0.3636972401552232
0.6344788669335536	0.038945817072862626	-0.34789403824247106	0.10420649689268446	0.02542201430559758	-0.9942307213086914
0.20223496389333065	0.25634439268955067	-0.10487895730510771	-0.811032593949568	-0.4783994736574733	-0.3366898797939842
0.2707522046635639	0.051676789357364326	0.12424036199065588	-0.937350665989813	-0.06475967082017216	0.34231551820464956
-0.5145731241578111	-0.4450458888341743	0.03220425534975234	-0.8009046908149557	-0.506573999437627	0.319271764057468
0.27074823858790353	-0.015934752911955754	0.11924873145907285	-0.938074476059519	0.019722158118101865	0.3458718170721987
0.2500698775324735	0.1864837940529018	-0.139940329031299	-0.8696115052924025	-0.24510879825109028	-0.42859947139839927
-0.429897301982584	-0.5305352658167991	0.06542499044091646	-0.5702247915287524	-0.5057588630515513	0.6473419958343455
0.07913384307499008	0.3602856863893775	-0.02208871188127942	-0.5464829438527824	-0.833918645383155	-0.07704599250007443
-0.6035485733123908	0.14308936075167522	0.050097152743238435	-0.2648321305660503	0.0563406477806489	0.9626472220016546
-0.3005176334033259	0.6645073832029893	-0.0487621051103453	-0.5313569810234797	0.7559677482279368	-0.38232515266039835
0.18279987482372057	-0.6594811606846858	-0.22476180490984313	-0.12306689609291152	-0.38541022988842766	-0.9145017735266596
0.0657438435655798	-0.7933742708445343	0.08158272474411066	-0.12920678068059754	-0.9288152638778555	0.34728635650377215
-0.6487085636552837	-0.01527358381989664	0.010681172036835537	-0.9824742470238323	-0.006486205955347379	0.18628548807478099
-0.37032225599688695	-0.39449682579728074	-0.0774786897726648	0.2456900674189305	0.5445965419977559	-0.8019046060572093
0.057639130585359515	0.3806957069923048	-0.05723572890352613	-0.49387992641775347	-0.8366144382129024	-0.23697869114184789
-0.3670293429404142	-0.3519955002870652	-0.007141812478194899	0.5338783709291417	0.8388076982579301	-0.10665613155031997
0.6550402849620024	-0.4212008650363257	0.2728102899354683	0.41713392883951134	-0.3825287538774864	0.8244216384034635
0.07381085052705375	-0.8080607165515544	-0.030718274340946847	-0.09596008042169997	-0.9809043003554981	-0.1691697860421643
0.18327865294447138	0.38490220603337044	0.19946368014268792	-0.5654448873701952	-0.39448420870147227	0.7243302343766139
-0.4499751457781847	0.28222742311586163	-0.024066394977952738	0.7144777548850424	-0.6151432275505876	-0.3333471874383755
-0.03455017435485444	0.7277554220058693	0.14378368804831107	-0.23364320431219554	0.6275365531004453	0.7427036606894716
-0.557989878773327	-0.005345730841834387	0.027165950802581794	0.8336804615434272	0.0035240559259548943	0.5522358817304145
0.4689784274817156	0.7425435997915228	0.032189740422445524	0.40865529373182635	0.9045206591446495	0.12183278739930253
-0.4122363073409232	-0.498332168757669	0.0933401658209897	-0.3922702447684542	-0.22602483050842548	0.8916483786016401
0.04643299882193796	-0.5406300194500097	-0.2049552154225275	-0.28970171734831784	0.2614572409077765	-0.9207133246251669
0.09005595463736632	-0.3582737320582529	0.0528773180446153	-0.5777108060952546	0.7817720897101996	0.2346968774204681
0.1470040897118352	-0.7702764667147117	-0.13459830210251142	-0.036837496277139475	-0.8115555491038483	-0.5831128446422551
-0.02397063855583604	0.5773821867615062	0.19251124554621063	-0.24683988234287157	-0.10060364832462308	0.9638199927521388
-0.4900093231346572	0.22724324848067953	0.022413936041663553	0.7550392737817564	-0.4988590566014631	0.42550597727154954
0.2768313411334821	-0.02205529699378526	0.135265563775731	-0.9208637969659326	0.021277522610707117	0.3893033964262791
-0.1233552204764958	-0.7484465113528854	-0.07550910939557569	-0.38072530515888536	-0.8359576514113479	-0.3952506129767514
0.11002094140902023	-0.3509878724817411	0.07781746627839708	-0.6184734694369813	0.7340660294730332	0.28042402175327064
-0.2781554768943233	0.6837031529370381	-0.038828241935324304	-0.5082131385990253	0.8177679043164375	-0.27013896502583656
-0.06499038195925194	-0.7208587740531208	-0.13954117636060528	-0.2706986604591442	-0.6217631004777385	-0.7349373320970534
-0.1188849792473459	0.7572866985874448	0.05910225894726381	-0.3458272289862676	0.8754629842396681	0.33759160374312336
0.4995435052538725	0.1621059258170681	-0.3344095718667137	-0.24363824513477658	-0.015227186604760051	-0.9697466361353105
-0.4797924460589535	-0.47817629091775826	0.05292697563170771	-0.6939275148098221	-0.4472871288820104	0.5642684011411155
0.13300486908241133	0.6655587056320955	-0.21546541214524562	-0.1445934211962154	0.3460664302687923	-0.9270009538224808
0.3165764812075832	0.13506058913421307	-0.22086312501546437	-0.7536281348576036	-0.1570367427901044	-0.6382664770806347
0.5366973584982164	0.1962766045742187	0.33967815257633643	-0.0914018944329531	0.060620497114789756	0.9939672273388197
0.2732892036231252	0.06308472137216545	-0.13314899159580312	-0.9102293875112424	-0.08635443015272518	-0.4050004623502384
-0.47439785818927643	-0.2843559694008466	-0.05375342114276131	0.4294473274035731	0.4485283537959434	-0.7838350010219182
-0.40874973058491637	-0.46875666021586015	0.09901579830979343	-0.3132141146958616	-0.08791393536341517	0.9456045993565199
-0.41397426839260404	0.4125719379752565	-0.09245685617147185	0.011735678554106357	-0.22160443747923875	-0.9750660219381995
-0.32685401818750665	-0.4121772148910552	0.07704970310585949	0.23432051352840627	0.652322936154733	0.7208111291498298
-0.5619060229592279	-0.03719015676948091	0.0342615758654145	0.6288095705405242	0.007075663877768257	0.7775271435630597
0.04220734796288331	0.587698307841547	0.21046873312343214	-0.31702965886124357	-0.005579359609551263	0.9483992124357079
0.03740374367305374	0.3836377673493605	0.0023119712476303515	-0.4349826576095964	-0.8977060195031837	0.07009985824979292
-0.2894575707980266	-0.3960639002028263	0.021310204845393012	0.3772984739962244	0.9102696773988914	0.17045520211550397
0.12343120178406183	0.6174885450018146	0.22747093127172038	-0.21089797439400879	0.17838482883061252	0.9610935944223001
0.37887575733546097	-0.135542973683773	-0.2781932646331664	-0.5839973896084852	0.07536160946120068	-0.8082497613670487
0.07125043447089399	0.5000528040810874	-0.19976488283047664	-0.3323166116535631	-0.33020482650387983	-0.8834763393394516
-0.19497197064679808	-0.4761905487724786	-0.1148725170203002	-0.01038486393726526	0.637249097850004	-0.7705879196369227
-0.5811191832251664	0.11478350889318101	0.05228604104375114	0.15327019057970767	-0.1119833808170412	0.9818187058212151
-0.04627139775481746	0.7618381424089025	0.09898104350524214	-0.2337416154172627	0.824716888125926	0.5149824382073803
0.27132067461278264	0.27110880983575164	0.21645688461260812	-0.6671023057394216	-0.28877973876031715	0.6867173917694749
0.5340475992941378	0.08133066758876957	-0.3431190147498622	-0.1969039777069353	0.017082147525668195	-0.9802739534431678
0.07698492697607105	-0.37557796108783537	0.07767955923468617	-0.5864855419214534	0.7548464529787909	0.2936691021242077
-0.5472865921694311	-0.06643926757962262	-0.015468648510334256	0.9241903769525173	0.1816913554575334	-0.3359470174006128
-0.5738008545620323	-0.21861487558474976	-0.05815911786541582	-0.2736801076268746	0.015389051913939855	-0.9616976529921101
0.14530395985596606	0.48876626667846634	-0.22540652132923603	-0.35219603983131537	-0.2539464076931187	-0.9008158366430397
-0.3092387173569124	-0.648478769928891	0.06568951386608957	-0.5244615253390837	-0.6860040968982328	0.5043198265761932
-0.5113961548491445	-0.3836248687550004	0.06969614001719103	-0.44583469239856627	-0.14754060689854712	0.8828721291160366
-0.6156782748873304	-0.1773604226243535	-0.03824599068970235	-0.6929876604543045	-0.1626596793562066	-0.7023602573963053
-0.024427323224120254	0.6795431562354896	0.17741617203557364	-0.24114103595481956	0.4064617493535893	0.8812717214860902
-0.24959208881092135	0.5150974318542881	0.13172726316673483	-0.13261986078421403	-0.2605683670709956	0.9563033507248268
-0.5830309643291645	0.06710203720331906	-0.04926657207620106	0.16556082759591353	-0.09436124896155412	-0.9816748784909246
-0.6232291029829028	-0.18651637199722723	-0.02480037296881951	-0.8734497357152201	-0.17077164186276714	-0.4559853128276258
0.6795112287470829	-0.4298184104969175	-0.2552360081710898	0.45129616869680966	-0.41465901006988004	-0.7901833163813621
-0.5136162529687218	0.31372424805178567	0.07196703455637077	-0.01158454314447652	-0.08280239379289181	0.996498651249614
-0.5863843129859292	-0.015829524004099635	-0.048227068742625175	0.22136095044399756	-0.009610385724896014	-0.9751445893326539
-0.46914571049283665	-0.25215962597393055	0.008172844043580194	0.7915375385194583	0.6072806966563336	0.06839941946505002
0.08697458574009855	-0.44836643835441636	0.17808390866126197	-0.4112700993517286	0.5014332857397672	0.7611974548902803
-0.02011050270080839	0.7423464541845727	-0.13435604056854292	-0.21480125087153257	0.7159646325658369	-0.6642703271552107
0.2394924317962822	0.11572785370807734	0.026456719879649898	-0.9813654742268164	-0.19085369975841407	0.022286123128552868
0.11283281295182272	-0.6083041280543251	-0.22658779232674803	-0.20535228783175322	-0.14792807056847687	-0.967443912493201
-0.6174486785379678	-0.19727239576584685	-0.030646932520951003	-0.838737540366816	-0.20422929359071737	-0.5047868203696093
-0.6014955225888567	-0.1325778750608968	0.05108914200965626	-0.22836010539787416	-0.026804972981964437	0.9732076631871067
0.3559533717173706	-0.07947328034783988	-0.2542282123923212	-0.6922161329904355	0.05124922065585097	-0.7198682814306621
-0.12634718224987762	0.6764041552120266	-0.14825450079199753	-0.30502576004772836	0.4629114918937266	-0.8322693292318484
0.5752332710842698	-0.4577729562653601	0.2871542984655644	0.2558289113770401	-0.37573947769916094	0.8907139905727319
-0.5941729478520368	0.09215026278193743	-0.05175632949464752	0.03437724629534793	-0.026819723467892354	-0.9990490014860406
0.32812611913270184	0.4038597410143445	0.28361645390519746	-0.3877374604760795	-0.059031276985178294	0.9198776930011189
-0.4931080677676424	0.26463850601254413	-0.05451176458754325	0.5097957908407375	-0.5061873178975984	-0.6956167413459097
0.27020604991555447	-0.7262305792361905	0.1818777028308609	0.07013532627560737	-0.6991534890708966	0.7115233198765915
-0.41533854651521085	0.5203742559832588	-0.0836460374922745	-0.5232671129815872	0.39247234092648475	-0.7564105962237703
-0.47459534051720587	0.2451095924392134	-0.010788264188722542	0.8085788602885189	-0.5738220260366026	-0.13010960429487506
0.368247828065541	0.19236638707792764	-0.2771359350077803	-0.5490835596556952	-0.08105140508734857	-0.8318280556997323
-0.40228621049865654	0.3264065838649816	0.016111151677904115	0.6376823057636551	-0.708559807229552	0.30216597507788384
0.2512816225112634	-0.09881262341431679	-0.08020240470704276	-0.9568245745320139	0.15302675837109447	-0.24712252992000977
-0.20779262175327717	0.6488044254089087	-0.13110413020276493	-0.3595945084216958	0.43014303120907804	-0.8280511833306109
-0.14839449711166416	0.6799417685369343	-0.137926099723637	-0.29177149829673216	0.48326252347426396	-0.8254251790362149
-0.05601520417828559	-0.6910726913578742	0.16305592637717298	-0.23708621773192928	-0.46646027579071336	0.8521765876101152
0.5525713181361889	0.6973585945354822	0.044603061375855076	0.5422542075736745	0.83153207728871	0.12047729582194576
-0.023612530824154765	-0.7672078181686968	0.10047616930729202	-0.21856880182181523	-0.8421454009995464	0.4929693727256188
-0.6397984103796746	-0.06994189332853001	0.02622571256037908	-0.8251823740114985	-0.1029326900987238	0.5554087782253603
-0.17852624520330976	-0.7274240728515269	0.06908698958528942	-0.4174264303396233	-0.8226985815531266	0.3859044171351149
0.41326155025631833	-0.7618004374714332	0.05109442373279137	0.3372552388136055	-0.9336233914017854	0.12085638965403075
0.5439719498657681	-0.5520330849100094	0.25013595870564814	0.2805510609070364	-0.5014708955201094	0.818424121815942
-0.015033828371637966	-0.4054355033755469	0.007783679995624761	-0.30930438966273016	0.950951406818549	-0.0047134281779713655
0.1693023526016404	-0.8064250150867418	0.055671029601138164	0.019470184079126582	-0.9819330496921221	0.18822432853978688
-0.3962602232563158	0.5976765150532367	-0.0013371032849709198	-0.6980301690055689	0.7157452610996671	-0.02150823961708456
-0.5934806482903568	0.30205923958321335	0.007194122964584755	-0.9336634845983571	0.35231225101672287	0.06440943495468779
0.5071197032516587	0.22767457828412377	0.33394009056389795	-0.20256293281963267	0.038230105922239264	0.9785227218867648
-0.517208849423153	0.260462961075065	0.06263091736391799	0.2418886509193253	-0.3165106373053455	0.9172300131531856
-0.3490196058664674	-0.5031898996401383	-0.11383801264052461	-0.2175203727931281	0.03365989786067489	-0.9754752168537899
0.375509343975468	-0.7728065672148416	-0.057720614785837315	0.2866674310909705	-0.9327741716047186	-0.2185271807781226
0.30581030044624935	-0.3403620798886552	0.264316636791153	-0.4618733514491212	0.20811625409804718	0.8621836416920439
0.0083713297975768	-0.7964901872899991	-0.04480383303106216	-0.1842283754433167	-0.9598790549123031	-0.21140507473138093
-0.21785037863508228	-0.41620949173967775	0.00749817250178057	0.222769385305354	0.970438169117769	0.09286312987416966
-0.5882109674758575	0.30347243497430676	-0.024878861439621047	-0.8317812923775294	0.3244786746501022	-0.45039257470353483
-0.24369089426937152	-0.6781108849835824	-0.08800569648031209	-0.41191299276229587	-0.7092664908089981	-0.5720740611224192
0.44361526167953935	0.5102574734009465	0.28854050218245764	0.04132375010850248	0.29007384950823356	0.9561116616318645
-0.44255840126235974	-0.28674808077111014	-0.014588025820011504	0.7213530871828947	0.6618207003576801	-0.20406637202090927
0.3754254665132237	0.3316755895871334	0.2962967398795229	-0.3578664149642534	-0.051749315841700005	0.9323377270874267
-0.13954038226348814	-0.5400293500675325	0.15688826160876732	-0.1683609873359566	0.3315069526442461	0.9283090639931225
-0.5045039638777508	-0.36981987042591397	0.0747835938548098	-0.4007962980149512	-0.06855155679801975	0.9135989336454361
0.32013258499250263	0.7833938863337224	-0.07254283443882086	0.20312183124541033	0.9234487274908729	-0.3255517921422018
-0.022591023895149907	0.5466293540673062	-0.18644562589761468	-0.2557800724422054	-0.26658010603051674	-0.9292532494482972
0.24603523876959035	0.33195027638158114	0.22092171984843711	-0.5755631437712275	-0.34640313659103883	0.7407644257738565
-0.5949139368552332	-0.29720975655255455	-0.010167594774546422	-0.9126895437295157	-0.3647056547545303	-0.18435721346580802
0.5091698825963845	-0.04102415398143765	-0.33794671298952034	-0.2644496067513447	0.006072244763542546	-0.9643803882973723
0.23387408983367597	-0.14452709104728756	0.04062663324621409	-0.9563662891497435	0.2751523038752025	0.09825848894685381
0.19890852983223709	0.23277845426813845	0.04633774339466778	-0.8564560254814638	-0.49244335351922397	0.1548632299522217
0.0998613985678761	-0.48370553791887644	-0.20443853952133237	-0.3574588715189382	0.3772120585298306	-0.8543618777029409
-0.5386452503316772	0.392464158727076	0.042278966349061045	-0.7068634188128236	0.3658633372183724	0.6053826274544738
0.1376615576714308	-0.8019433357899355	0.07168671559613869	-0.0017102747814328606	-0.9484493060140007	0.3169242636368073
0.029889220978177866	0.4601850400866727	-0.15717928526414823	-0.31967378110211003	-0.5815880483339458	-0.7480401163781207
0.624144120623043	0.025321073789730326	-0.34900676148062587	0.046916259465603405	0.017188436084539176	-0.9987509310447346
-0.370807291204961	-0.5513882243686521	0.0967836600930551	-0.483617826427971	-0.351437746209887	0.8016266640400624
-0.21817910715738636	0.44234560182547045	0.0803796363809511	0.09785152270148681	-0.8073051351615795	0.5819652036391392
0.24936426363961117	-0.06075964373248249	0.040633471734267464	-0.9908543829987918	0.06373898909758935	0.11893247227272047
0.1519644336088403	0.32055200966356356	0.09840229029239583	-0.7164752740307727	-0.6044515645826047	0.34828363122054684
0.2137432936082686	-0.3500651462964173	0.20331883417541824	-0.6022698108212604	0.40336378118958083	0.6888894940393326
0.2545752557457273	-0.048379776906889424	-0.06685393924727072	-0.9777179689231918	0.11105040087046121	-0.17814427218189804
0.28085794476942927	-0.2259457636925909	0.20743844480877596	-0.7199565332853239	0.2566504821813202	0.6448202231443075
-0.016063154646015158	0.5797093401890662	0.19481434790963334	-0.2540313382829702	-0.06390459741217792	0.9650825257975354
0.3919254627644132	0.7559803350532015	0.09545648739330964	0.30814079538645817	0.8686053639422244	0.38803862172391634
-0.5842157415655079	-0.32044125169074555	-0.01705672054162638	-0.9003785430202929	-0.37713383657360555	-0.21699895985909434
-0.23662900245895963	-0.6670289266362331	-0.10413061474266924	-0.4325611345334788	-0.583172631691534	-0.6876049349278122
-0.2152784547588388	-0.5566512377746916	-0.1458600262581057	-0.21838121384961376	0.07920861785937264	-0.9726436347883931
0.5360719852910371	-0.36260896632857326	0.3207927726079325	0.027987732806640776	-0.1705912798756048	0.9849443141836738
0.035160302874769365	-0.6499295314496606	-0.2017871961003525	-0.1982469454654772	-0.2560716623732341	-0.9461106977214753
0.6231020455201484	0.4801444535845085	0.2584788977135966	0.37786720612343233	0.43813938935478375	0.8156287452219235
-0.2244634921705652	-0.6850268007564289	0.09428933823741015	-0.41635204878021226	-0.656533166563849	0.6289794692024252
-0.20264647639948258	0.4337839614893203	-0.06278730808673362	0.12297614537134802	-0.9196871924734514	-0.37289721864061454
0.4829551349071008	0.22510323362984103	0.32917565850004876	-0.24299449988027494	0.0318338777556856	0.9695051713399837
0.5785193576850014	-0.47199114705936074	0.28017417197440214	0.25671689020324734	-0.3781360368710699	0.8894434079264482
0.31662126029655513	0.46505876062095197	-0.2819474485525201	-0.26358412156716493	-0.0005335638142318336	-0.9646362662513379
0.3362600295215453	-0.03831004770520598	-0.2311059528467574	-0.7574851153799165	0.05939564471229919	-0.6501449510432934
-0.6258638683025952	0.17732999131822652	0.023452886993725313	-0.9028486879611113	0.20666594548981196	0.37703240394122906
0.4776057472882564	0.5145139105870915	0.28429902825362435	0.08944087227578358	0.33314495069566163	0.9386238715228439
-0.6400545651940827	0.12185953361620394	0.010682523204643942	-0.9456105141579243	0.20100773752904497	0.2557667784670983
-0.057611838122671996	-0.7868819793965655	-0.004715478467956709	-0.2835099575233956	-0.9584073016853906	-0.03282602719201608
-0.057374313206268165	-0.7861084347747144	0.018240341633588182	-0.2547140490676693	-0.9623454029183224	0.09493196874354079
0.3932517400080596	0.039066647413089	-0.28290996783263883	-0.6001507362960913	-0.015743349887361424	-0.7997319805144623
0.35604335881686106	0.023009473195031348	0.2512538733429251	-0.7012271108288317	-0.028611273666304476	0.7123636248839771
0.45245112084663813	0.5298286577169076	0.28123972294270116	0.07178522373721986	0.34818211759102236	0.9346743254432682
-0.3263023443931069	0.48939956209227475	0.11619148160873963	-0.06417585921881126	-0.2370567603970476	0.9693737934582222
0.23426160067208163	0.1337391528333432	-0.0032062022288913317	-0.968040593385783	-0.2504056519606387	-0.013943422229467706
0.3706019568255072	0.7715122194212936	0.0686260455739992	0.2607534464347586	0.9274313332172935	0.26810214907603447
-0.3964232797774667	-0.5916647134907901	0.03140919608920097	-0.7156443882829472	-0.6557441255839707	0.24052598878549478
-0.6424084087617619	0.09689853664137073	0.014246651311052235	-0.9410374224911332	0.11535202074699544	0.31802905650400715
-0.5511195127463063	0.04433358691968987	-0.018168725139605383	0.9136365967499166	-0.12449209844544154	-0.3870011453521549
0.3089257165517584	0.3550346351692776	-0.2689636525471489	-0.4448429928506143	-0.16724627527424446	-0.8798541896920185
0.27378552563380304	0.4860797250354863	-0.2703527267181143	-0.2608119581149888	0.01943712004523731	-0.965193929150289
-0.6413495091582546	0.08675916681111415	0.020253956417200167	-0.9038933997504568	0.07400325306208502	0.42130777398926494
0.5170294201517014	0.40719938898833696	0.3124808589414596	0.06882583206203363	0.2334811981705348	0.969922437590666
0.416631143460815	-0.5858818276513397	0.2611273791152477	0.06703806916875771	-0.4425291460911457	0.8942448502183089
-0.6115927991300665	0.1317721532536257	0.046808669630007814	-0.5345242255787372	0.04024515025011538	0.8441943971330281
-0.5430562769445343	0.4037723082251475	-0.0213379107535221	-0.8411421186135623	0.46247884737549494	-0.28034488050350015
-0.15206441054932945	0.6549608229883631	0.14947315053465934	-0.2563870019880399	0.3582790585665571	0.8977203469924511
-0.5500952784783159	0.11663338630993884	0.03764771128880062	0.6225405420631923	-0.1868620684869756	0.7599512095183716
0.3412557025865011	-0.287750108293727	-0.2746287429007526	-0.5105303385629947	0.1674342356139023	-0.8434005869995247
-0.3629686414759188	-0.35687356456489594	-0.019485308225474098	0.48524599681184255	0.8543647327446974	-0.18600329572392812
0.6915470634454538	-0.4652721063117885	-0.22527797975844646	0.5189994849328068	-0.4647272698870911	-0.7174037212495987
-0.15246484450630787	-0.5887606075287634	0.16219031991012814	-0.2122868068120314	0.0167314007807864	0.9770641595522085
0.27676701113436886	-0.08736293874963078	0.14737610774184248	-0.9165710307983458	0.13088069132908442	0.3778462519841618
0.24182109062166945	0.6550810202598689	0.2319822608621611	-0.0445494072497785	0.42910264687484306	0.9021564547010109
-0.5774296522772545	-0.22027582098548504	-0.057074713066581614	-0.350313917046963	-0.048078421990131764	-0.935397575826532
0.12312906168105645	-0.7245361687699525	-0.18022054421821754	-0.10172381905244429	-0.6500539587254637	-0.7530485478259279
-0.3519278943679471	-0.4345467133189863	-0.09738736615883126	0.07143048376892533	0.45512481789838083	-0.8875579339522031
-0.6320174371222951	-0.12769069554545245	-0.02828391060054997	-0.8478866339670581	-0.14356644670656535	-0.5103694067242485
-0.28688991105899486	0.5377597931217897	0.1290462602260946	-0.20629710337523874	-0.06012939888032258	0.9766401387047724
-0.15326052039422214	0.665122268582397	-0.1443857477106788	-0.3143944097446707	0.4391413657039105	-0.8416121529831924
0.29989608112852495	0.4985912443758631	-0.27671921384019676	-0.23278575126230228	0.04015130010935625	-0.9716988561837326
-0.37277765063385654	0.5937729470725561	0.06510736010891975	-0.615482612295476	0.6379987865291489	0.46275123160211157
-0.15690498566462316	-0.7091785057933683	0.11013438657266131	-0.36541447122038884	-0.6901104674457685	0.624675761451096
0.09979069550982066	-0.34441886208106587	0.012583177088833244	-0.6297687192587089	0.7764805036344556	0.021665357574422894
0.5365097309607929	0.7104432885584274	0.008711935046298457	0.47890531543256604	0.8768986847713776	0.04121159420189658
-0.5176706619061338	-0.22542855458999014	0.051493440599630506	0.4667843798742093	0.3025053874157607	0.831025170070011
0.6542623689681732	-0.027937302942313967	-0.3455357613982447	0.1505621148827709	0.0061189290185498235	-0.9885816143696448
0.4012982469786409	-0.25788884003132817	-0.3021178210269797	-0.4056171437973449	0.048455690884122424	-0.9127577875201217
0.19320099630436188	-0.2832076784909604	0.12174794543604447	-0.7830612608672419	0.47562362727205454	0.4007458382935245
0.21359271673870295	0.35737319666289336	-0.20729657514221433	-0.5809314169676075	-0.38999376032289523	-0.7144393296069411
0.6920468755058422	0.1578433233481844	-0.3283669486020689	0.22194211046610374	0.12159027621125888	-0.967448967301491
0.1769354854952244	-0.6895811297695548	-0.2092271191874762	-0.07651020407105642	-0.5008865340130162	-0.8621246248179164
0.10239023854622718	0.3419768860370309	-0.0002292413167638687	-0.6599367015036506	-0.7511131027329628	0.017682107095662272
-0.18233839958530673	-0.4552534659443869	0.09376696113698979	0.08068231776451759	0.759572524718255	0.645399057400366
0.6175457347869636	0.3116474567618903	0.32106776190465314	0.16201917574485714	0.18236280527263035	0.9697904897162344
0.6513595960592868	-0.4440697823430371	0.2635651924510239	0.4230489378215532	-0.4114437862950876	0.8073063897475476
-0.07981045577484258	-0.4582612240346776	0.1103889485801395	-0.1649427676579254	0.7670430474602766	0.6200313272248383
-0.013377452541946357	0.7931268489804908	-0.04065678498245371	-0.19815330394017427	0.958034016683608	-0.20713785509815802
-0.005488206939448308	0.5046123813829259	-0.17394547873383098	-0.2815075701200275	-0.48171294309505885	-0.829883201673473
